# .PCD v0.7 - Point Cloud Data file format
VERSION 0.7
FIELDS x y z intensity ring timestamp
SIZE 4 4 4 4 2 8
TYPE F F F F U F
COUNT 1 1 1 1 1 1
WIDTH 944
HEIGHT 1
VIEWPOINT 0 0 0 1 0 0 0
POINTS 944
DATA ascii
3.0902507 -4.5321374 -1.4594351 17 0 1.6812926e+09
4.4338107 -4.4761634 -1.4442482 18 1 1.6812926e+09
5.5203366 -8.1106949 2.2534089 10 14 1.6812926e+09
6.9757485 -7.0386348 2.6423309 48 15 1.6812926e+09
5.3467131 -7.855525 1.4961197 4 12 1.6812926e+09
6.956151 -7.0482426 1.9163851 49 13 1.6812926e+09
5.3419051 -7.854363 0.82797956 6 10 1.6812926e+09
6.9489055 -7.0630026 1.210572 47 11 1.6812926e+09
5.3375549 -7.8509231 0.16509975 8 8 1.6812926e+09
6.9412727 -7.0675473 0.51734096 50 9 1.6812926e+09
5.3296943 -7.8452454 -0.49687824 9 6 1.6812926e+09
6.9355054 -7.0690675 -0.17225525 50 7 1.6812926e+09
5.260006 -7.7513471 -1.1442477 41 4 1.6812926e+09
6.949964 -7.0813375 -0.86329508 41 5 1.6812926e+09
4.4458122 -6.5608788 -1.5308731 18 2 1.6812926e+09
6.9483213 -7.0747685 -1.5668516 24 3 1.6812926e+09
3.0771174 -4.5468979 -1.4607284 16 0 1.6812926e+09
4.4223628 -4.4943118 -1.4453713 19 1 1.6812926e+09
5.4919915 -8.1299152 2.2534089 10 14 1.6812926e+09
6.9477472 -7.0595012 2.6410384 48 15 1.6812926e+09
5.315114 -7.8680005 1.494949 4 12 1.6812926e+09
6.9280686 -7.0689774 1.9154319 47 13 1.6812926e+09
5.3130426 -7.8679061 0.8275438 6 10 1.6812926e+09
6.9172688 -7.0801191 1.2093551 46 11 1.6812926e+09
5.3031292 -7.8591456 0.1648816 8 8 1.6812926e+09
6.9008651 -7.0756545 0.51616335 49 9 1.6812926e+09
5.2925091 -7.8493109 -0.49595931 9 6 1.6812926e+09
6.9038062 -7.0860753 -0.17208071 47 7 1.6812926e+09
5.2301459 -7.765543 -1.1436392 42 4 1.6812926e+09
6.9100528 -7.0924983 -0.8615554 41 5 1.6812926e+09
4.3886538 -6.5254383 -1.5189689 24 2 1.6812926e+09
6.9063349 -7.0813098 -1.5629363 23 3 1.6812926e+09
3.0639186 -4.5616212 -1.4620216 17 0 1.6812926e+09
4.3939357 -4.498301 -1.4414406 19 1 1.6812926e+09
5.4622231 -8.1470127 2.2528474 9 14 1.6812926e+09
6.9146185 -7.075078 2.6378074 46 15 1.6812926e+09
5.283493 -7.880353 1.4937783 4 12 1.6812926e+09
6.901638 -7.0913596 1.9149554 46 13 1.6812926e+09
5.2813983 -7.8831878 0.82710797 6 10 1.6812926e+09
6.8821402 -7.0935407 1.2075295 50 11 1.6812926e+09
5.2742882 -7.8785295 0.1648816 8 8 1.6812926e+09
6.8783593 -7.1044855 0.51642501 51 9 1.6812926e+09
5.2609296 -7.8645058 -0.49569675 9 6 1.6812926e+09
6.8685961 -7.0993571 -0.17181893 50 7 1.6812926e+09
5.1975136 -7.77847 -1.1427264 41 4 1.6812926e+09
6.8817887 -7.1129975 -0.86112046 42 5 1.6812926e+09
4.3590393 -6.5305099 -1.5165881 21 2 1.6812926e+09
6.8781371 -7.1018291 -1.5621532 25 3 1.6812926e+09
3.046638 -4.5702791 -1.4613751 17 0 1.6812926e+09
4.3934841 -4.5293369 -1.4464943 18 1 1.6812926e+09
5.4228845 -8.1527786 2.2489169 6 14 1.6812926e+09
6.895371 -7.1073046 2.6403923 54 15 1.6812926e+09
5.2450037 -7.8852706 1.4910468 4 12 1.6812926e+09
6.8619518 -7.1024938 1.9111425 51 13 1.6812926e+09
5.2483339 -7.8932786 0.82623643 7 10 1.6812926e+09
6.8388729 -7.1008525 1.2044872 51 11 1.6812926e+09
5.2412229 -7.8885636 0.16470708 8 8 1.6812926e+09
6.8310132 -7.1050668 0.51472414 51 9 1.6812926e+09
5.2306838 -7.8786612 -0.49543419 9 6 1.6812926e+09
6.831645 -7.1106782 -0.17151351 51 7 1.6812926e+09
5.17033 -7.7965651 -1.1427264 42 4 1.6812926e+09
6.8431072 -7.1226149 -0.8593809 41 5 1.6812926e+09
4.3540382 -6.5750942 -1.5232545 18 2 1.6812926e+09
6.8469253 -7.121654 -1.5609788 25 3 1.6812926e+09
3.0359936 -4.588944 -1.4639615 19 0 1.6812926e+09
4.3590422 -4.5253596 -1.4403175 19 1 1.6812926e+09
5.3004708 -8.0293255 2.20961 1 14 1.6812926e+09
6.8520789 -7.1122084 2.6332839 50 15 1.6812926e+09
5.2228875 -7.9117751 1.4926077 6 12 1.6812926e+09
6.8201194 -7.1087022 1.9063766 49 13 1.6812926e+09
5.2152643 -7.903235 0.82536483 7 10 1.6812926e+09
6.8054647 -7.1157188 1.2029661 52 11 1.6812926e+09
5.2109041 -7.902637 0.16461982 9 8 1.6812926e+09
6.8078952 -7.1306729 0.51485497 51 9 1.6812926e+09
5.2031498 -7.8968716 -0.49543419 10 6 1.6812926e+09
6.7981505 -7.1254425 -0.17129536 51 7 1.6812926e+09
5.1389923 -7.8083467 -1.1418136 41 4 1.6812926e+09
6.8113232 -7.1392536 -0.85851103 42 5 1.6812926e+09
4.3000693 -6.5430737 -1.5123026 22 2 1.6812926e+09
6.8117886 -7.1347995 -1.5586296 26 3 1.6812926e+09
3.0186319 -4.5974941 -1.4633149 17 0 1.6812926e+09
4.3347931 -4.5317521 -1.4375098 19 1 1.6812926e+09
5.2470527 -8.009057 2.198941 1 14 1.6812926e+09
6.8205295 -7.1291056 2.6306992 50 15 1.6812926e+09
5.1830626 -7.9113665 1.4890957 6 12 1.6812926e+09
6.7935696 -7.1306891 1.9058999 50 13 1.6812926e+09
5.184917 -7.9172239 0.82492912 7 10 1.6812926e+09
6.7732801 -7.1292558 1.2014447 54 11 1.6812926e+09
5.1764455 -7.9103193 0.16440167 9 8 1.6812926e+09
6.762341 -7.1326628 0.51328486 55 9 1.6812926e+09
5.1741881 -7.9128966 -0.49530295 10 6 1.6812926e+09
6.7543168 -7.1291776 -0.17081541 65 7 1.6812926e+09
5.1130614 -7.8283157 -1.142118 41 4 1.6812926e+09
6.7743645 -7.1503358 -0.85698885 42 5 1.6812926e+09
4.2743258 -6.5511298 -1.5108742 22 2 1.6812926e+09
6.779592 -7.1483955 -1.5566721 25 3 1.6812926e+09
3.0078363 -4.6160984 -1.4659015 17 0 1.6812926e+09
4.3139105 -4.5415602 -1.4358253 21 1 1.6812926e+09
5.2005467 -7.9957762 2.1905179 1 14 1.6812926e+09
6.7802057 -7.1341867 2.6242371 49 15 1.6812926e+09
5.1621833 -7.9367919 1.4906566 6 12 1.6812926e+09
6.7597604 -7.1424894 1.9030405 49 13 1.6812926e+09
5.1518216 -7.9269199 0.82405758 7 10 1.6812926e+09
6.7313166 -7.1348147 1.1984024 51 11 1.6812926e+09
5.1542697 -7.9337301 0.16453256 8 8 1.6812926e+09
6.7420769 -7.1586809 0.51354659 50 9 1.6812926e+09
5.1411247 -7.9195404 -0.49464655 10 6 1.6812926e+09
6.7362447 -7.1599898 -0.17098995 50 7 1.6812926e+09
5.083024 -7.8389812 -1.1412052 41 4 1.6812926e+09
6.7454915 -7.1673222 -0.85633647 42 5 1.6812926e+09
4.2714343 -6.5969162 -1.5180166 21 2 1.6812926e+09
6.7512102 -7.1684232 -1.555889 26 3 1.6812926e+09
2.9917049 -4.6265697 -1.4659015 16 0 1.6812926e+09
4.2887874 -4.5452175 -1.4324561 21 1 1.6812926e+09
5.1276994 -7.9442821 2.1714261 4 14 1.6812926e+09
6.7486272 -7.1507878 2.6216524 52 15 1.6812926e+09
5.1130271 -7.9215636 1.484413 10 12 1.6812926e+09
6.7246981 -7.1553159 1.9001808 54 13 1.6812926e+09
5.1160579 -7.9293103 0.82253236 8 10 1.6812926e+09
6.7029757 -7.1546478 1.197794 54 11 1.6812926e+09
5.1184196 -7.9390659 0.16427076 9 8 1.6812926e+09
6.6965728 -7.1602998 0.51197642 59 9 1.6812926e+09
5.1188545 -7.9458327 -0.49517164 10 6 1.6812926e+09
6.6907234 -7.161552 -0.17046638 71 7 1.6812926e+09
5.0502605 -7.8483281 -1.1399882 41 4 1.6812926e+09
6.7038684 -7.1756272 -0.85437942 42 5 1.6812926e+09
4.236445 -6.5932007 -1.5137311 21 2 1.6812926e+09
6.7143354 -7.179328 -1.5531484 27 3 1.6812926e+09
2.9794474 -4.6430826 -1.4678413 17 0 1.6812926e+09
4.2920995 -4.5822268 -1.4391944 19 1 1.6812926e+09
5.0631571 -7.9046869 2.1557033 21 14 1.6812926e+09
6.7203202 -7.1707783 2.6203599 48 15 1.6812926e+09
5.0587139 -7.8977704 1.4766085 11 12 1.6812926e+09
6.687953 -7.1661925 1.8968447 51 13 1.6812926e+09
5.0815926 -7.9396167 0.82166076 11 10 1.6812926e+09
6.6678138 -7.1671062 1.1959684 49 11 1.6812926e+09
5.0758238 -7.9367127 0.16383445 14 8 1.6812926e+09
6.6702838 -7.1847959 0.51197642 50 9 1.6812926e+09
5.074914 -7.9413986 -0.49372762 11 6 1.6812926e+09
6.662282 -7.1811996 -0.1703791 50 7 1.6812926e+09
5.0147877 -7.8563266 -1.1384671 41 4 1.6812926e+09
6.6753898 -7.195333 -0.85394454 43 5 1.6812926e+09
4.2173615 -6.6141577 -1.5151596 21 2 1.6812926e+09
6.6791472 -7.1918716 -1.5507994 27 3 1.6812926e+09
2.9580364 -4.6453047 -1.4652548 17 0 1.6812926e+09
4.272758 -4.593616 -1.4380714 18 1 1.6812926e+09
4.9910512 -7.8553295 2.1371727 52 14 1.6812926e+09
6.6808267 -7.181222 2.61519 50 15 1.6812926e+09
4.9873695 -7.849555 1.4641213 64 12 1.6812926e+09
6.6516304 -7.1798596 1.893985 47 13 1.6812926e+09
4.9911098 -7.8584862 0.81141996 60 10 1.6812926e+09
6.6393867 -7.1866946 1.1953601 48 11 1.6812926e+09
5.0480881 -7.9543824 0.16383445 10 8 1.6812926e+09
6.631619 -7.1933584 0.51092976 48 9 1.6812926e+09
5.0164208 -7.9105668 -0.49070829 13 6 1.6812926e+09
6.632091 -7.1988993 -0.17024823 49 7 1.6812926e+09
4.9886608 -7.8758802 -1.1387713 41 4 1.6812926e+09
6.6367264 -7.2039437 -0.85220486 42 5 1.6812926e+09
4.2152367 -6.6620259 -1.5227783 21 2 1.6812926e+09
6.6489773 -7.2096992 -1.5496247 29 3 1.6812926e+09
2.9495389 -4.6678534 -1.4691346 17 0 1.6812926e+09
4.2434621 -4.5941954 -1.4335792 18 1 1.6812926e+09
4.9740691 -7.8862624 2.1411035 54 14 1.6812926e+09
6.6487761 -7.1944723 2.611959 46 15 1.6812926e+09
4.9678969 -7.8764954 1.4660724 60 12 1.6812926e+09
6.6178088 -7.1910481 1.8911257 44 13 1.6812926e+09
4.9623208 -7.873754 0.81120211 70 10 1.6812926e+09
6.6125817 -7.2079983 1.1950557 50 11 1.6812926e+09
4.9524193 -7.8610907 0.16156565 74 8 1.6812926e+09
6.6026678 -7.2097888 0.51053727 51 9 1.6812926e+09
4.9489422 -7.8616538 -0.48663875 90 6 1.6812926e+09
6.5967937 -7.2109447 -0.16998643 51 7 1.6812926e+09
4.9545932 -7.8797746 -1.1369458 41 4 1.6812926e+09
6.6060715 -7.2185664 -0.85133499 41 5 1.6812926e+09
4.2337012 -6.7432213 -1.5380156 18 2 1.6812926e+09
6.6204333 -7.2292237 -1.5488417 29 3 1.6812926e+09
2.9229696 -4.6617498 -1.4639615 16 0 1.6812926e+09
4.2628193 -4.6459122 -1.4453713 19 1 1.6812926e+09
4.9439268 -7.899447 2.1399806 44 14 1.6812926e+09
6.6089191 -7.2016306 2.6061432 50 15 1.6812926e+09
4.9443011 -7.9000683 1.4672431 84 12 1.6812926e+09
6.5910101 -7.2122941 1.890649 52 13 1.6812926e+09
4.9480677 -7.9091702 0.8131631 72 10 1.6812926e+09
6.5740051 -7.2163682 1.1926218 50 11 1.6812926e+09
4.9328966 -7.8910484 0.16182743 47 8 1.6812926e+09
6.562336 -7.2161765 0.50935972 51 9 1.6812926e+09
4.928081 -7.8894696 -0.48729512 44 6 1.6812926e+09
6.5543427 -7.21244 -0.16950649 50 7 1.6812926e+09
4.9231186 -7.8907051 -1.1360332 41 4 1.6812926e+09
6.572454 -7.2323694 -0.85024774 42 5 1.6812926e+09
4.1828942 -6.7142086 -1.5280161 19 2 1.6812926e+09
6.5835238 -7.2395077 -1.5461011 30 3 1.6812926e+09
2.9113212 -4.6775694 -1.4659015 18 0 1.6812926e+09
4.2629967 -4.6787596 -1.4509866 18 1 1.6812926e+09
4.8957653 -7.8835397 2.1309962 55 14 1.6812926e+09
6.575603 -7.215735 2.6029122 51 15 1.6812926e+09
4.8984618 -7.8879061 1.46178 63 12 1.6812926e+09
6.5542436 -7.2225399 1.8873128 49 13 1.6812926e+09
4.909924 -7.9094644 0.81141996 42 10 1.6812926e+09
6.5404472 -7.2300739 1.1911006 52 11 1.6812926e+09
4.9079561 -7.9124684 0.16191469 58 8 1.6812926e+09
6.5270615 -7.2279263 0.5085746 49 9 1.6812926e+09
4.908401 -7.9193578 -0.48808277 59 6 1.6812926e+09
6.5190744 -7.2241459 -0.16924471 48 7 1.6812926e+09
4.895545 -7.9078422 -1.1360332 41 4 1.6812926e+09
6.5421605 -7.2497234 -0.84959543 42 5 1.6812926e+09
4.1323419 -6.6849232 -1.5180166 23 2 1.6812926e+09
6.5532465 -7.2569494 -1.5449265 29 3 1.6812926e+09
2.8962436 -4.6897583 -1.4665481 16 0 1.6812926e+09
4.2499104 -4.6972222 -1.4521096 19 1 1.6812926e+09
4.8630056 -7.8952065 2.1293116 58 14 1.6812926e+09
6.5393853 -7.2290459 2.599035 51 15 1.6812926e+09
4.8617501 -7.8931904 1.4594386 54 12 1.6812926e+09
6.5178676 -7.235579 1.8844533 48 13 1.6812926e+09
4.8613219 -7.8955927 0.80815166 57 10 1.6812926e+09
6.5006337 -7.239234 1.1886667 54 11 1.6812926e+09
4.8605909 -7.9005942 0.16130385 59 8 1.6812926e+09
6.4955239 -7.2462263 0.50818211 56 9 1.6812926e+09
4.8558154 -7.8990078 -0.48571983 52 6 1.6812926e+09
6.4825406 -7.2368245 -0.16898292 62 7 1.6812926e+09
4.8639321 -7.9215016 -1.1354246 41 4 1.6812926e+09
6.5039072 -7.260673 -0.84807324 41 5 1.6812926e+09
4.1039658 -6.6937461 -1.5165881 21 2 1.6812926e+09
6.5167098 -7.2698922 -1.5425774 31 3 1.6812926e+09
2.8777747 -4.6982827 -1.4659015 17 0 1.6812926e+09
4.268507 -4.752615 -1.4644632 17 1 1.6812926e+09
4.8265271 -7.8975816 2.1253808 52 14 1.6812926e+09
6.5044241 -7.2410545 2.5951579 47 15 1.6812926e+09
4.8315935 -7.905899 1.4586582 56 12 1.6812926e+09
6.4876595 -7.2528005 1.8830234 49 13 1.6812926e+09
4.8363271 -7.9167652 0.80858743 59 10 1.6812926e+09
6.4753246 -7.2618814 1.1886667 51 11 1.6812926e+09
4.8290772 -7.9111109 0.16117296 60 8 1.6812926e+09
6.4635472 -7.2613988 0.50765878 50 9 1.6812926e+09
4.8217149 -7.905252 -0.48506343 55 6 1.6812926e+09
6.4472666 -7.2482071 -0.16872112 51 7 1.6812926e+09
4.83496 -7.9363122 -1.1351204 42 4 1.6812926e+09
6.4702425 -7.2740307 -0.846986 41 5 1.6812926e+09
4.0690999 -6.6891575 -1.5123026 26 2 1.6812926e+09
6.47651 -7.2760034 -1.5390538 31 3 1.6812926e+09
2.8588498 -4.7041707 -1.4646082 16 0 1.6812926e+09
4.2405314 -4.7547674 -1.4605325 18 1 1.6812926e+09
4.8001933 -7.9164648 2.1259425 55 14 1.6812926e+09
6.4726739 -7.2565088 2.5925729 49 15 1.6812926e+09
4.7950082 -7.9079332 1.4559265 56 12 1.6812926e+09
6.4476275 -7.2588964 1.8787341 49 13 1.6812926e+09
4.8035011 -7.9250784 0.80771583 58 10 1.6812926e+09
6.4334774 -7.2658696 1.1856242 50 11 1.6812926e+09
4.7988434 -7.9236436 0.1610857 55 8 1.6812926e+09
6.4315443 -7.2764378 0.50713539 58 9 1.6812926e+09
4.795383 -7.92417 -0.48519471 59 6 1.6812926e+09
6.411993 -7.2594328 -0.16845936 76 7 1.6812926e+09
4.8059444 -7.9510164 -1.1348162 42 4 1.6812926e+09
6.4316149 -7.2816448 -0.84524632 41 5 1.6812926e+09
4.0698118 -6.7432489 -1.5213498 27 2 1.6812926e+09
6.4445295 -7.2911696 -1.5374877 31 3 1.6812926e+09
2.8498895 -4.726532 -1.4684879 16 0 1.6812926e+09
4.2206755 -4.7658954 -1.4594095 18 1 1.6812926e+09
4.7737851 -7.9352598 2.1265039 57 14 1.6812926e+09
6.43609 -7.2664084 2.5880497 46 15 1.6812926e+09
4.7686472 -7.9267397 1.4563168 57 12 1.6812926e+09
6.4125042 -7.2703204 1.8758746 48 13 1.6812926e+09
4.7706752 -7.9332585 0.80684429 59 10 1.6812926e+09
6.3965998 -7.2752428 1.1834946 52 11 1.6812926e+09
4.7685819 -7.9360609 0.16099843 63 8 1.6812926e+09
6.3995142 -7.2913413 0.506612 50 9 1.6812926e+09
4.76127 -7.9301572 -0.48453835 56 6 1.6812926e+09
6.3866143 -7.2817707 -0.16845936 49 7 1.6812926e+09
4.7743344 -7.96136 -1.1339035 41 4 1.6812926e+09
6.4012289 -7.2984366 -0.84459394 42 5 1.6812926e+09
4.0323853 -6.7342496 -1.516112 21 2 1.6812926e+09
6.4092612 -7.3024907 -1.5351386 33 3 1.6812926e+09
2.818505 -4.7115774 -1.4607284 16 0 1.6812926e+09
4.1991835 -4.7751145 -1.4577248 18 1 1.6812926e+09
4.7460575 -7.9518747 2.1265039 58 14 1.6812926e+09
6.4122815 -7.2906427 2.5886958 48 15 1.6812926e+09
4.7396836 -7.9412155 1.4559265 57 12 1.6812926e+09
6.3838511 -7.2889681 1.8749214 48 13 1.6812926e+09
4.7429543 -7.9498625 0.80684429 55 10 1.6812926e+09
6.3678999 -7.2937894 1.1828861 49 11 1.6812926e+09
4.7382917 -7.9483643 0.16091119 64 8 1.6812926e+09
6.3658171 -7.3042288 0.50595784 48 9 1.6812926e+09
4.737391 -7.9531641 -0.48493215 57 6 1.6812926e+09
6.3513017 -7.2927141 -0.16819756 50 7 1.6812926e+09
4.7477827 -7.9801092 -1.1342077 42 4 1.6812926e+09
6.3675308 -7.3113499 -0.84350669 41 5 1.6812926e+09
4.0063477 -6.7440634 -1.5151596 21 2 1.6812926e+09
6.3804841 -7.3210969 -1.5343556 32 3 1.6812926e+09
2.8032727 -4.723464 -1.4613751 17 0 1.6812926e+09
4.1856971 -4.7934108 -1.4588479 17 1 1.6812926e+09
4.7095852 -7.9537187 2.1225731 57 14 1.6812926e+09
6.3677197 -7.291163 2.5809412 44 15 1.6812926e+09
4.7157087 -7.9640884 1.4570973 56 12 1.6812926e+09
6.3519239 -7.3038039 1.873015 44 13 1.6812926e+09
4.7126384 -7.9620833 0.80640846 60 10 1.6812926e+09
6.3326435 -7.3047285 1.1810607 46 11 1.6812926e+09
4.7117896 -7.9670062 0.1609548 62 8 1.6812926e+09
6.3370132 -7.3226304 0.50569612 46 9 1.6812926e+09
4.7083306 -7.9675035 -0.4848009 62 6 1.6812926e+09
6.317627 -7.3053904 -0.1679794 46 7 1.6812926e+09
4.7135944 -7.9859476 -1.1326865 41 4 1.6812926e+09
6.3370805 -7.3278828 -0.84285426 42 5 1.6812926e+09
3.9939926 -6.7770391 -1.5194452 23 2 1.6812926e+09
6.3419576 -7.3283939 -1.5312235 32 3 1.6812926e+09
2.7941155 -4.7457089 -1.4652548 17 0 1.6812926e+09
4.1737313 -4.8135109 -1.4605325 18 1 1.6812926e+09
4.7015281 -8.0037212 2.1315577 51 14 1.6812926e+09
6.3438139 -7.3151708 2.5815876 54 15 1.6812926e+09
4.680378 -7.9677243 1.4547559 42 12 1.6812926e+09
6.3231802 -7.3222184 1.8720618 51 13 1.6812926e+09
4.6923809 -7.9913735 0.80771583 58 10 1.6812926e+09
6.303525 -7.3200498 1.180148 54 11 1.6812926e+09
4.6826868 -7.9812498 0.16091119 62 8 1.6812926e+09
6.296762 -7.3276725 0.50451857 52 9 1.6812926e+09
4.6817522 -7.986043 -0.48493215 56 6 1.6812926e+09
6.2937169 -7.3292947 -0.16802303 52 7 1.6812926e+09
4.680675 -7.9937868 -1.1314695 41 4 1.6812926e+09
6.3098392 -7.3480706 -0.84263688 42 5 1.6812926e+09
3.9975076 -6.8347402 -1.5294446 21 2 1.6812926e+09
6.3111787 -7.341898 -1.5296575 30 3 1.6812926e+09
2.7824018 -4.7637763 -1.4678413 17 0 1.6812926e+09
4.1473584 -4.8169808 -1.4571633 16 1 1.6812926e+09
4.6712818 -8.0129538 2.129873 43 14 1.6812926e+09
6.3100576 -7.3251929 2.5777104 48 15 1.6812926e+09
4.6589026 -7.991735 1.4563168 65 12 1.6812926e+09
6.2924695 -7.3356986 1.8701553 54 13 1.6812926e+09
4.6531792 -7.9883337 0.80575484 58 10 1.6812926e+09
6.2714806 -7.3344679 1.178931 52 11 1.6812926e+09
4.659966 -8.0032139 0.16104208 44 8 1.6812926e+09
6.2626977 -7.3371239 0.50373358 55 9 1.6812926e+09
4.6477137 -7.9885764 -0.48414451 42 6 1.6812926e+09
6.2567348 -7.3379092 -0.16771762 55 7 1.6812926e+09
4.6541409 -8.009264 -1.1314695 41 4 1.6812926e+09
6.2741179 -7.3556957 -0.8411147 42 5 1.6812926e+09
3.9600821 -6.8252983 -1.5242068 21 2 1.6812926e+09
6.2823048 -7.3601284 -1.5288744 32 3 1.6812926e+09
2.7185655 -4.6919527 -1.4426229 17 0 1.6812926e+09
4.1139297 -4.8103547 -1.4509866 18 1 1.6812926e+09
4.626215 -7.9996839 2.1220117 54 14 1.6812926e+09
6.2813077 -7.3435049 2.5764179 54 15 1.6812926e+09
4.6223273 -7.9929838 1.4535853 55 12 1.6812926e+09
6.2556791 -7.3445463 1.8668193 54 13 1.6812926e+09
4.635385 -8.0188141 0.80728006 41 10 1.6812926e+09
6.2410192 -7.3506422 1.1780182 54 11 1.6812926e+09
4.6295018 -8.0151024 0.1609548 68 8 1.6812926e+09
6.230588 -7.351325 0.50321019 60 9 1.6812926e+09
4.6235423 -8.0112391 -0.48453835 65 6 1.6812926e+09
6.2262354 -7.3539839 -0.16758673 65 7 1.6812926e+09
4.6224389 -8.0190115 -1.1305568 41 4 1.6812926e+09
6.2390642 -7.3691406 -0.84002733 41 5 1.6812926e+09
nan nan nan 0 2 1.6812926e+09
6.2406015 -7.3631849 -1.5249592 32 3 1.6812926e+09
2.6480489 -4.6071782 -1.4135246 24 0 1.6812926e+09
4.0394659 -4.7585835 -1.4307716 13 1 1.6812926e+09
4.5970511 -8.01367 2.1214502 52 14 1.6812926e+09
6.2384291 -7.3451462 2.5693095 48 15 1.6812926e+09
4.598084 -8.0154963 1.4547559 58 12 1.6812926e+09
6.2125607 -7.3457327 1.8615767 46 13 1.6812926e+09
4.5997734 -8.0249453 0.80619061 57 10 1.6812926e+09
6.1945186 -7.3477292 1.1740632 48 11 1.6812926e+09
4.5901585 -8.0146608 0.16060576 56 8 1.6812926e+09
6.1875215 -7.3550158 0.50190181 49 9 1.6812926e+09
4.589191 -8.0194626 -0.48401323 48 6 1.6812926e+09
6.1860428 -7.3584599 -0.16719404 46 7 1.6812926e+09
4.5880923 -8.0272808 -1.1293398 41 4 1.6812926e+09
6.2052855 -7.3813467 -0.83894008 41 5 1.6812926e+09
nan nan nan 0 2 1.6812926e+09
6.2100887 -7.3792577 -1.5237846 32 3 1.6812926e+09
2.6486864 -4.6457701 -1.4225775 18 0 1.6812926e+09
4.0668311 -4.8247781 -1.4464943 18 1 1.6812926e+09
4.5592203 -8.0156412 2.1175194 54 14 1.6812926e+09
6.2114658 -7.3679619 2.5693095 50 15 1.6812926e+09
4.562572 -8.0215616 1.4528048 62 12 1.6812926e+09
6.1966472 -7.3816061 1.8649127 50 13 1.6812926e+09
4.569272 -8.036622 0.80575484 62 10 1.6812926e+09
6.1755133 -7.3798957 1.1755844 56 11 1.6812926e+09
4.5547485 -8.0175943 0.16034397 65 8 1.6812926e+09
6.1602077 -7.3746529 0.50177097 62 9 1.6812926e+09
4.5624018 -8.0376043 -0.48414451 56 6 1.6812926e+09
6.1667309 -7.387681 -0.16736858 66 7 1.6812926e+09
4.5624909 -8.0475655 -1.1299484 41 4 1.6812926e+09
6.1683044 -7.3895841 -0.8374179 41 5 1.6812926e+09
3.6237359 -6.401412 -1.4204026 16 2 1.6812926e+09
6.1655779 -7.3811321 -1.5194778 31 3 1.6812926e+09
2.6954205 -4.7664185 -1.4568486 16 0 1.6812926e+09
4.0358806 -4.8221416 -1.4414406 18 1 1.6812926e+09
4.5276227 -8.0251408 2.115835 56 14 1.6812926e+09
6.1701984 -7.3710885 2.5628476 49 15 1.6812926e+09
4.5296922 -8.0288353 1.4512439 60 12 1.6812926e+09
6.1519761 -7.3805795 1.8591937 46 13 1.6812926e+09
4.5362988 -8.0438442 0.80488324 59 10 1.6812926e+09
6.1322608 -7.3804207 1.1722378 48 11 1.6812926e+09
4.524281 -8.029089 0.16025671 59 8 1.6812926e+09
6.1296439 -7.3903494 0.50137848 49 9 1.6812926e+09
4.5257459 -8.0382509 -0.48322555 57 6 1.6812926e+09
6.1201563 -7.3841534 -0.16680136 71 7 1.6812926e+09
4.5282931 -8.0526266 -1.1284271 41 4 1.6812926e+09
6.1377015 -7.4053202 -0.83676559 41 5 1.6812926e+09
3.7515011 -6.6815548 -1.4799234 19 2 1.6812926e+09
6.1334672 -7.3950114 -1.5179119 31 3 1.6812926e+09
2.6681399 -4.7568388 -1.4510289 17 0 1.6812926e+09
4.0252566 -4.8436899 -1.4436867 18 1 1.6812926e+09
4.4972038 -8.036644 2.1147118 54 14 1.6812926e+09
6.1428862 -7.3907247 2.5622013 50 15 1.6812926e+09
4.4980226 -8.0381327 1.4500732 59 12 1.6812926e+09
6.1246099 -7.4001193 1.8587172 48 13 1.6812926e+09
4.5045476 -8.0531092 0.80422962 60 10 1.6812926e+09
6.1080413 -7.4036951 1.172542 57 11 1.6812926e+09
4.4889121 -8.0317392 0.15999492 70 8 1.6812926e+09
6.1038094 -7.4117002 0.50137848 51 9 1.6812926e+09
4.4952264 -8.0496407 -0.48296303 60 6 1.6812926e+09
6.0975223 -7.4093304 -0.16688862 52 7 1.6812926e+09
4.5025735 -8.0727196 -1.1290357 41 4 1.6812926e+09
6.1054807 -7.4190106 -0.83589572 42 5 1.6812926e+09
3.7615755 -6.7546535 -1.493256 21 2 1.6812926e+09
6.1107578 -7.420186 -1.518695 33 3 1.6812926e+09
2.6186652 -4.7070236 -1.4329234 16 0 1.6812926e+09
3.9959099 -4.8426881 -1.4391944 19 1 1.6812926e+09
4.4726686 -8.0586843 2.1163964 55 14 1.6812926e+09
6.1124363 -7.4065366 2.5602627 48 15 1.6812926e+09
4.4663434 -8.047308 1.4489026 59 12 1.6812926e+09
6.0878282 -7.408186 1.855381 46 13 1.6812926e+09
4.4703703 -8.0578938 0.80314022 55 10 1.6812926e+09
6.0664263 -7.4057817 1.1694995 44 11 1.6812926e+09
4.4608488 -8.0473585 0.15999492 66 8 1.6812926e+09
6.0763197 -7.4310293 0.50124758 46 9 1.6812926e+09
4.457427 -8.0478096 -0.48191282 74 6 1.6812926e+09
6.0716219 -7.4305692 -0.16688862 48 7 1.6812926e+09
4.4695635 -8.0797014 -1.1278187 41 4 1.6812926e+09
6.0732388 -7.4325662 -0.83502591 42 5 1.6812926e+09
3.6620648 -6.6302323 -1.4627814 18 2 1.6812926e+09
6.0801268 -7.4357386 -1.5175203 32 3 1.6812926e+09
2.5579114 -4.6357732 -1.4083517 21 0 1.6812926e+09
3.9728003 -4.8490739 -1.4369484 22 1 1.6812926e+09
4.4445109 -8.0742474 2.1163964 55 14 1.6812926e+09
6.0926723 -7.435297 2.5628476 49 15 1.6812926e+09
4.4429865 -8.0715017 1.4504634 60 12 1.6812926e+09
6.0821123 -7.4540997 1.8615767 58 13 1.6812926e+09
4.4494162 -8.0865431 0.80444747 62 10 1.6812926e+09
6.0609055 -7.4519296 1.1734548 59 11 1.6812926e+09
4.4327312 -8.0628824 0.15999492 72 8 1.6812926e+09
6.0566411 -7.4599442 0.50177097 60 9 1.6812926e+09
4.4281063 -8.0611305 -0.48178154 73 6 1.6812926e+09
6.0503745 -7.4575391 -0.16701952 58 7 1.6812926e+09
4.4353671 -8.0843744 -1.1262975 41 4 1.6812926e+09
6.0394073 -7.4440532 -0.83393866 41 5 1.6812926e+09
3.6553986 -6.6731133 -1.4694476 19 2 1.6812926e+09
6.047905 -7.4492526 -1.5159543 33 3 1.6812926e+09
2.5544586 -4.6679811 -1.4154645 19 0 1.6812926e+09
3.9789302 -4.8912416 -1.4453713 23 1 1.6812926e+09
4.4127994 -8.0832968 2.1147118 50 14 1.6812926e+09
6.0621052 -7.450901 2.5609088 50 15 1.6812926e+09
4.4124193 -8.0826263 1.449683 42 12 1.6812926e+09
6.0266867 -7.4390683 1.8525214 43 13 1.6812926e+09
4.4140072 -8.0889072 0.80314022 62 10 1.6812926e+09
6.0036578 -7.434444 1.1673698 46 11 1.6812926e+09
4.4069514 -8.082695 0.16008219 76 8 1.6812926e+09
6.0023446 -7.4460673 0.49941581 46 9 1.6812926e+09
4.4059105 -8.0875015 -0.48243794 81 6 1.6812926e+09
5.9992023 -7.4474788 -0.16632143 44 7 1.6812926e+09
4.4047494 -8.0954475 -1.125689 41 4 1.6812926e+09
6.007133 -7.457334 -0.83306879 41 5 1.6812926e+09
3.6648726 -6.7462234 -1.4827803 19 2 1.6812926e+09
6.0203156 -7.4683967 -1.5155628 31 3 1.6812926e+09
2.547358 -4.6938524 -1.4206376 18 0 1.6812926e+09
3.9526401 -4.8937368 -1.4420022 19 1 1.6812926e+09
4.382237 -8.094367 2.1135888 43 14 1.6812926e+09
6.0087271 -7.4382153 2.5492773 50 15 1.6812926e+09
4.385354 -8.1001511 1.4500732 62 12 1.6812926e+09
5.9899087 -7.4466796 1.8491853 50 13 1.6812926e+09
4.3940387 -8.1195984 0.80466545 55 10 1.6812926e+09
5.9712038 -7.4446373 1.1658487 54 11 1.6812926e+09
4.3727684 -8.0870342 0.15986404 42 8 1.6812926e+09
5.9685116 -7.457233 0.49876165 54 9 1.6812926e+09
4.378839 -8.1050291 -0.48256919 46 6 1.6812926e+09
5.9512987 -7.4410563 -0.16571058 55 7 1.6812926e+09
4.3741083 -8.1064053 -1.1250805 41 4 1.6812926e+09
5.9717269 -7.4665928 -0.83176416 41 5 1.6812926e+09
3.6680872 -6.8058743 -1.493256 21 2 1.6812926e+09
5.9831629 -7.4729056 -1.5124305 32 3 1.6812926e+09
2.5595524 -4.755888 -1.4368032 16 0 1.6812926e+09
3.9568901 -4.9340954 -1.4498636 19 1 1.6812926e+09
4.3553715 -8.1088543 2.1135888 55 14 1.6812926e+09
5.9719296 -7.4430361 2.5441077 49 15 1.6812926e+09
4.3573008 -8.1124725 1.449683 56 12 1.6812926e+09
5.9590511 -7.4588356 1.8472788 56 13 1.6812926e+09
4.36096 -8.1261082 0.80379385 42 10 1.6812926e+09
5.938993 -7.457674 1.1646317 52 11 1.6812926e+09
4.3518329 -8.112505 0.16008219 73 8 1.6812926e+09
5.9375315 -7.4691687 0.49823827 74 9 1.6812926e+09
4.3519373 -8.1195049 -0.48256919 58 6 1.6812926e+09
5.9330649 -7.4715691 -0.16592874 91 7 1.6812926e+09
4.3507137 -8.127429 -1.1259931 41 4 1.6812926e+09
5.9422832 -7.4805064 -0.83111173 40 5 1.6812926e+09
3.7368159 -6.991817 -1.5313493 18 2 1.6812926e+09
5.9539661 -7.4898815 -1.5116477 31 3 1.6812926e+09
2.5463448 -4.7711868 -1.4387431 17 0 1.6812926e+09
3.9329102 -4.9376678 -1.4470558 19 1 1.6812926e+09
4.3247499 -8.1197071 2.1124656 54 14 1.6812926e+09
5.9383836 -7.4543953 2.5408766 43 15 1.6812926e+09
4.3266363 -8.1232748 1.4489026 58 12 1.6812926e+09
5.9207697 -7.4642153 1.8434662 40 13 1.6812926e+09
4.3281398 -8.1295328 0.80270439 56 10 1.6812926e+09
5.9113855 -7.4764142 1.1643275 39 11 1.6812926e+09
4.3187947 -8.1188183 0.15990765 58 8 1.6812926e+09
5.912971 -7.4918094 0.49836913 38 9 1.6812926e+09
4.3177123 -8.1236229 -0.48191282 49 6 1.6812926e+09
5.903851 -7.4883099 -0.16584148 39 7 1.6812926e+09
4.3223176 -8.1425667 -1.1259931 42 4 1.6812926e+09
5.9101973 -7.4963703 -0.83045936 40 5 1.6812926e+09
3.6526501 -6.8920422 -1.5065886 19 2 1.6812926e+09
5.9201317 -7.5009313 -1.5096899 31 3 1.6812926e+09
2.5274169 -4.7757759 -1.4374498 16 0 1.6812926e+09
3.8966405 -4.9291296 -1.4403175 17 1 1.6812926e+09
4.2952437 -8.1325989 2.1119041 52 14 1.6812926e+09
5.9752889 -7.5546026 2.5680172 32 15 1.6812926e+09
4.291337 -8.125226 1.4465612 58 12 1.6812926e+09
5.9508948 -7.5561466 1.8611002 35 13 1.6812926e+09
4.2936668 -8.1365309 0.80183285 58 10 1.6812926e+09
5.9419789 -7.5691948 1.1755844 37 11 1.6812926e+09
4.2901735 -8.1368036 0.1599513 65 8 1.6812926e+09
5.9424701 -7.5861225 0.50321019 40 9 1.6812926e+09
4.2855821 -8.1349754 -0.48165026 54 6 1.6812926e+09
5.9162173 -7.5580621 -0.16693226 39 7 1.6812926e+09
4.2878242 -8.1495686 -1.1247762 41 4 1.6812926e+09
5.8763137 -7.5071535 -0.82937211 41 5 1.6812926e+09
3.4710832 -6.6049089 -1.4408778 16 2 1.6812926e+09
5.8878169 -7.5137801 -1.508124 33 3 1.6812926e+09
2.5051239 -4.7738752 -1.4342167 16 0 1.6812926e+09
3.8944659 -4.961854 -1.4459329 18 1 1.6812926e+09
4.2608895 -8.1396542 2.109658 55 14 1.6812926e+09
5.9550209 -7.5859485 2.5712483 33 15 1.6812926e+09
4.2661071 -8.1496515 1.4481221 57 12 1.6812926e+09
5.9292097 -7.5856385 1.8630066 10 13 1.6812926e+09
4.2583132 -8.1382275 0.80052549 58 10 1.6812926e+09
5.9231529 -7.5996714 1.1771055 9 11 1.6812926e+09
4.2559566 -8.1406527 0.15973315 59 8 1.6812926e+09
5.9082856 -7.5969696 0.50255603 10 9 1.6812926e+09
4.2548485 -8.1454592 -0.4813877 58 6 1.6812926e+09
5.9143558 -7.6102338 -0.16763034 10 7 1.6812926e+09
4.2627935 -8.1710882 -1.125689 42 4 1.6812926e+09
5.8485441 -7.5256538 -0.82915461 41 5 1.6812926e+09
3.6917348 -7.0849833 -1.5432534 22 2 1.6812926e+09
5.8570018 -7.528441 -1.5069493 31 3 1.6812926e+09
2.4984701 -4.8018746 -1.4400363 17 0 1.6812926e+09
3.869628 -4.9658151 -1.4431251 19 1 1.6812926e+09
4.2394848 -8.1645498 2.1124656 55 14 1.6812926e+09
6.001153 -7.6970391 2.6022661 2 15 1.6812926e+09
4.236783 -8.1593704 1.4473417 58 12 1.6812926e+09
5.8934813 -7.5916948 1.8596704 4 13 1.6812926e+09
4.2241473 -8.1419878 0.79943603 59 10 1.6812926e+09
5.8889923 -7.6104927 1.1755844 7 11 1.6812926e+09
4.2312388 -8.1591606 0.15982041 72 8 1.6812926e+09
5.8830609 -7.6165204 0.50255603 7 9 1.6812926e+09
4.2220736 -8.1484394 -0.48073134 62 6 1.6812926e+09
5.8908105 -7.634789 -0.16771762 8 7 1.6812926e+09
4.2299738 -8.17416 -1.1241678 42 4 1.6812926e+09
5.8128972 -7.5312114 -0.82763243 40 5 1.6812926e+09
3.4676764 -6.7118464 -1.4589721 22 2 1.6812926e+09
5.8276663 -7.5449333 -1.5061663 32 3 1.6812926e+09
2.4761608 -4.7998343 -1.4368032 18 0 1.6812926e+09
3.8620939 -4.9901733 -1.4464943 18 1 1.6812926e+09
4.2098451 -8.1771317 2.1119041 54 14 1.6812926e+09
6.0940633 -7.872571 2.6546085 7 15 1.6812926e+09
4.2048864 -8.1675224 1.4461709 58 12 1.6812926e+09
5.8849344 -7.6355367 1.8653895 4 13 1.6812926e+09
4.1971245 -8.1559505 0.79943603 54 10 1.6812926e+09
5.8805418 -7.6546068 1.1792352 2 11 1.6812926e+09
4.2027321 -8.1738815 0.15982041 66 8 1.6812926e+09
5.8564382 -7.6370096 0.50255603 3 9 1.6812926e+09
4.1913233 -8.1586857 -0.48046878 79 6 1.6812926e+09
5.859375 -7.6463485 -0.16754308 3 7 1.6812926e+09
4.2048116 -8.1954985 -1.1250805 42 4 1.6812926e+09
5.7835417 -7.5475039 -0.82719761 41 5 1.6812926e+09
nan nan nan 0 2 1.6812926e+09
5.7952814 -7.5573969 -1.5046004 30 3 1.6812926e+09
2.4591308 -4.8058686 -1.4361566 16 0 1.6812926e+09
3.8416803 -4.9997625 -1.4453713 18 1 1.6812926e+09
4.1823826 -8.1939468 2.1124656 55 14 1.6812926e+09
6.0017552 -7.8095713 2.6261756 1 15 1.6812926e+09
4.181962 -8.1931496 1.4481221 58 12 1.6812926e+09
5.8448143 -7.6384974 1.8611002 6 13 1.6812926e+09
4.1742864 -8.1816444 0.80052549 65 10 1.6812926e+09
5.8311996 -7.6455021 1.1746716 3 11 1.6812926e+09
4.1673651 -8.1751385 0.15955862 78 8 1.6812926e+09
5.8357968 -7.6653485 0.50307935 4 9 1.6812926e+09
4.1639514 -8.1754923 -0.48060009 79 6 1.6812926e+09
5.8296199 -7.6627774 -0.16745582 4 7 1.6812926e+09
4.1705551 -8.1990662 -1.1235594 41 4 1.6812926e+09
5.7496157 -7.5577393 -0.82611024 41 5 1.6812926e+09
3.5151496 -6.9219131 -1.4994462 19 2 1.6812926e+09
5.6895442 -7.4734936 -1.4838499 29 3 1.6812926e+09
2.4510751 -4.831655 -1.4413296 17 0 1.6812926e+09
3.8256836 -5.0150776 -1.4459329 19 1 1.6812926e+09
4.154521 -8.2135696 2.1135888 44 14 1.6812926e+09
nan nan nan 0 15 1.6812926e+09
4.1474471 -8.1996069 1.4465612 43 12 1.6812926e+09
5.8197489 -7.6637759 1.8620534 6 13 1.6812926e+09
4.1476407 -8.203558 0.80117917 73 10 1.6812926e+09
5.8089738 -7.6717434 1.1755844 3 11 1.6812926e+09
4.1430073 -8.2015133 0.15977678 90 8 1.6812926e+09
5.8016396 -7.6787214 0.50255603 6 9 1.6812926e+09
4.1339593 -8.1906996 -0.48060009 90 6 1.6812926e+09
5.7864246 -7.6641512 -0.16701952 4 7 1.6812926e+09
4.1427088 -8.218729 -1.1241678 41 4 1.6812926e+09
5.718873 -7.5747876 -0.82567537 41 5 1.6812926e+09
3.5152345 -6.9823723 -1.5099218 22 2 1.6812926e+09
5.73493 -7.5878243 -1.5026426 30 3 1.6812926e+09
2.4268463 -4.8276591 -1.4374498 18 0 1.6812926e+09
3.8058043 -5.0271249 -1.4453713 19 1 1.6812926e+09
4.13272 -8.2381897 2.1163964 55 14 1.6812926e+09
nan nan nan 0 15 1.6812926e+09
4.1213403 -8.2155218 1.4469514 64 12 1.6812926e+09
5.7795167 -7.6634455 1.8572873 7 13 1.6812926e+09
4.1267881 -8.233572 0.80270439 62 10 1.6812926e+09
5.7672386 -7.6721454 1.172542 4 11 1.6812926e+09
4.1146679 -8.2129717 0.15973315 43 8 1.6812926e+09
5.7626495 -7.6799521 0.50137848 4 9 1.6812926e+09
4.1078916 -8.2065954 -0.48073134 55 6 1.6812926e+09
5.7566361 -7.6803041 -0.16693226 6 7 1.6812926e+09
4.1098862 -8.221323 -1.1226466 41 4 1.6812926e+09
5.6907334 -7.5897274 -0.82524049 41 5 1.6812926e+09
3.4798856 -6.9726381 -1.5051601 23 2 1.6812926e+09
5.7009945 -7.5979257 -1.5006851 30 3 1.6812926e+09
2.3992159 -4.8144832 -1.4309835 16 0 1.6812926e+09
3.7979054 -5.051394 -1.4487404 19 1 1.6812926e+09
4.0876741 -8.2198439 2.1079736 54 14 1.6812926e+09
nan nan nan 0 15 1.6812926e+09
4.0849442 -8.2143793 1.4442198 44 12 1.6812926e+09
5.7497873 -7.6796465 1.8563343 8 13 1.6812926e+09
4.1005697 -8.2494421 0.80292225 48 10 1.6812926e+09
5.737453 -7.6882544 1.1719335 4 11 1.6812926e+09
4.0859742 -8.2272854 0.15973315 90 8 1.6812926e+09
5.7358069 -7.7000208 0.50137848 6 9 1.6812926e+09
4.081439 -8.2253571 -0.4809939 78 6 1.6812926e+09
5.7208328 -7.688324 -0.16667047 6 7 1.6812926e+09
4.0833659 -8.2400665 -1.123255 42 4 1.6812926e+09
5.6569266 -7.6025443 -0.82437068 40 5 1.6812926e+09
3.4370329 -6.9473429 -1.4970653 22 2 1.6812926e+09
5.6729627 -7.6158004 -1.5002936 31 3 1.6812926e+09
2.3834643 -4.8249941 -1.4316303 17 0 1.6812926e+09
3.7851987 -5.0730858 -1.4509866 18 1 1.6812926e+09
4.0600328 -8.2362471 2.1085351 56 14 1.6812926e+09
5.7793703 -7.7417121 2.5757718 1 15 1.6812926e+09
4.0595202 -8.2352343 1.4453906 58 12 1.6812926e+09
5.7141562 -7.6878567 1.8534746 8 13 1.6812926e+09
4.049408 -8.2219629 0.79878241 62 10 1.6812926e+09
5.7076244 -7.704248 1.1713251 4 11 1.6812926e+09
4.046967 -8.2242613 0.15938409 72 8 1.6812926e+09
5.6986351 -7.7089496 0.50059336 6 9 1.6812926e+09
4.0457587 -8.2290592 -0.48033753 43 6 1.6812926e+09
5.6909885 -7.7042265 -0.16658321 6 7 1.6812926e+09
4.0542307 -8.257205 -1.1235594 41 4 1.6812926e+09
5.6303544 -7.6222444 -0.82437068 40 5 1.6812926e+09
3.4354436 -7.005578 -1.5070648 22 2 1.6812926e+09
5.633122 -7.6176944 -1.49677 32 3 1.6812926e+09
2.380404 -4.8614841 -1.4400363 18 0 1.6812926e+09
3.7674673 -5.0862679 -1.4509866 18 1 1.6812926e+09
4.023406 -8.2379379 2.1051657 55 14 1.6812926e+09
8.2123213 -11.081911 3.6814277 3 15 1.6812926e+09
4.0260592 -8.2433996 1.4442198 59 12 1.6812926e+09
5.6830249 -7.7047997 1.8525214 8 13 1.6812926e+09
4.0305123 -8.2561922 0.8007434 64 10 1.6812926e+09
5.6718702 -7.7121344 1.1694995 4 11 1.6812926e+09
4.0226159 -8.2473249 0.15955862 80 8 1.6812926e+09
5.6628237 -7.7167234 0.49980837 6 9 1.6812926e+09
4.014823 -8.2386408 -0.48007497 62 6 1.6812926e+09
5.6611032 -7.720015 -0.16649595 6 7 1.6812926e+09
4.0210409 -8.2623806 -1.1223423 41 4 1.6812926e+09
5.5933976 -7.6277976 -0.8228485 41 5 1.6812926e+09
3.489254 -7.1786776 -1.5418249 23 2 1.6812926e+09
5.5567851 -7.5696611 -1.4834584 26 3 1.6812926e+09
2.3349698 -4.8110952 -1.4225775 15 0 1.6812926e+09
3.7468009 -5.0954647 -1.4498636 18 1 1.6812926e+09
3.9950047 -8.2490416 2.1046042 56 14 1.6812926e+09
8.1683655 -11.09936 3.6781967 4 15 1.6812926e+09
3.9965494 -8.2522602 1.4434394 60 12 1.6812926e+09
5.6487355 -7.7117271 1.8496618 8 13 1.6812926e+09
3.9929941 -8.2522745 0.79900026 55 10 1.6812926e+09
5.6463804 -7.7338905 1.1698039 4 11 1.6812926e+09
3.9919806 -8.2538681 0.15942773 66 8 1.6812926e+09
5.6327887 -7.7294078 0.49941581 14 9 1.6812926e+09
3.9863946 -8.2496614 -0.47994366 65 6 1.6812926e+09
5.6341209 -7.7397294 -0.16649595 7 7 1.6812926e+09
3.994698 -8.2779045 -1.1226466 41 4 1.6812926e+09
5.5666041 -7.6442914 -0.822631 41 5 1.6812926e+09
3.2065198 -6.6556864 -1.4265927 24 2 1.6812926e+09
5.5550656 -7.6229229 -1.4901141 26 3 1.6812926e+09
2.3129311 -4.8083329 -1.4193443 17 0 1.6812926e+09
3.729883 -5.107861 -1.4498636 18 1 1.6812926e+09
3.9630241 -8.2563457 2.1029198 54 14 1.6812926e+09
8.1352739 -11.135604 3.6807816 6 15 1.6812926e+09
3.9645147 -8.2594814 1.4422687 59 12 1.6812926e+09
5.6217823 -7.7313981 1.8496618 10 13 1.6812926e+09
3.9634521 -8.2609787 0.79856443 65 10 1.6812926e+09
5.6091485 -7.7394919 1.1676741 4 11 1.6812926e+09
3.9599044 -8.2609892 0.15929683 90 8 1.6812926e+09
5.5984526 -7.7389131 0.49876165 25 9 1.6812926e+09
3.9511063 -8.2500162 -0.47915605 83 6 1.6812926e+09
5.598279 -7.7471962 -0.16623417 7 7 1.6812926e+09
3.9636381 -8.2873211 -1.1220381 41 4 1.6812926e+09
5.532711 -7.6565714 -0.82176125 41 5 1.6812926e+09
3.1652992 -6.6291838 -1.4184979 23 2 1.6812926e+09
5.5313191 -7.6462679 -1.4908972 33 3 1.6812926e+09
2.3023639 -4.8294592 -1.4232241 16 0 1.6812926e+09
3.7182913 -5.1313558 -1.4526711 17 1 1.6812926e+09
3.937319 -8.2767305 2.1046042 55 14 1.6812926e+09
5.6409273 -7.7806044 2.5622013 2 15 1.6812926e+09
3.9388409 -8.2799597 1.4434394 58 12 1.6812926e+09
5.5890117 -7.7430186 1.8477556 10 13 1.6812926e+09
3.9331477 -8.2754488 0.79856443 62 10 1.6812926e+09
5.5806489 -7.7570119 1.1673698 4 11 1.6812926e+09
3.9306719 -8.2777061 0.15934047 90 8 1.6812926e+09
5.5642228 -7.7512703 0.49823827 23 9 1.6812926e+09
3.922981 -8.2689533 -0.47941861 90 6 1.6812926e+09
5.5726614 -7.7687216 -0.1662778 7 7 1.6812926e+09
3.9321744 -8.2995501 -1.1217338 41 4 1.6812926e+09
5.5001407 -7.6677451 -0.82089138 41 5 1.6812926e+09
nan nan nan 0 2 1.6812926e+09
5.4973893 -7.6555042 -1.4889396 33 3 1.6812926e+09
2.2916772 -4.8505692 -1.4271039 17 0 1.6812926e+09
3.6946609 -5.1363974 -1.450425 19 1 1.6812926e+09
3.9131846 -8.3043299 2.1079736 56 14 1.6812926e+09
5.6039042 -7.7894697 2.5583243 2 15 1.6812926e+09
3.9063621 -8.2898731 1.4426589 60 12 1.6812926e+09
5.5534444 -7.753479 1.8453724 9 13 1.6812926e+09
3.9042368 -8.2891283 0.79856443 72 10 1.6812926e+09
5.5492086 -7.7703891 1.1664572 6 11 1.6812926e+09
3.9017532 -8.2913771 0.15934047 90 8 1.6812926e+09
5.532783 -7.7645488 0.49784577 18 9 1.6812926e+09
3.8962166 -8.2871161 -0.47968113 64 6 1.6812926e+09
5.5397053 -7.779984 -0.16610327 7 7 1.6812926e+09
3.9031799 -8.3132248 -1.1217338 41 4 1.6812926e+09
5.4646678 -7.6747289 -0.81958663 41 5 1.6812926e+09
3.3688955 -7.1844716 -1.5327777 19 2 1.6812926e+09
5.4749355 -7.6806769 -1.4901141 33 3 1.6812926e+09
2.2767782 -4.8629146 -1.4283972 17 0 1.6812926e+09
3.6852114 -5.1611528 -1.4537941 18 1 1.6812926e+09
3.8825328 -8.3106384 2.1062889 41 14 1.6812926e+09
5.5625901 -7.7864017 2.5512159 2 15 1.6812926e+09
3.8809404 -8.3072567 1.4434394 60 12 1.6812926e+09
5.5220089 -7.7638555 1.8434662 10 13 1.6812926e+09
3.8815966 -8.3162489 0.7998718 76 10 1.6812926e+09
5.5163069 -7.7816167 1.1652402 4 11 1.6812926e+09
3.8774059 -8.3110666 0.15947135 95 8 1.6812926e+09
5.5026755 -7.7767415 0.49745327 25 9 1.6812926e+09
3.873986 -8.311306 -0.48033753 90 6 1.6812926e+09
5.5081835 -7.7931519 -0.16597238 7 7 1.6812926e+09
3.8724508 -8.3193741 -1.1208211 41 4 1.6812926e+09
5.4406261 -7.6948404 -0.81980413 41 5 1.6812926e+09
3.3375943 -7.1828318 -1.5299208 24 2 1.6812926e+09
5.4409556 -7.6896667 -1.4881566 33 3 1.6812926e+09
2.2618208 -4.8752141 -1.4296902 18 0 1.6812926e+09
3.6666656 -5.1713586 -1.4532326 19 1 1.6812926e+09
3.8555455 -8.3285618 2.1074119 65 14 1.6812926e+09
5.5451617 -7.8195558 2.5557394 2 15 1.6812926e+09
3.8508818 -8.318512 1.4430492 60 12 1.6812926e+09
5.4920416 -7.7790747 1.842513 10 13 1.6812926e+09
3.8508613 -8.3222933 0.79921818 41 10 1.6812926e+09
5.4848232 -7.7947392 1.1643275 6 11 1.6812926e+09
3.8431289 -8.3132048 0.15925321 78 8 1.6812926e+09
5.4740601 -7.793859 0.49732238 4 9 1.6812926e+09
3.8459964 -8.3270435 -0.48046878 90 6 1.6812926e+09
5.4723272 -7.8000584 -0.16571058 7 7 1.6812926e+09
3.8465035 -8.3396006 -1.1217338 41 4 1.6812926e+09
5.4052296 -7.7045393 -0.81871682 41 5 1.6812926e+09
3.3012164 -7.1699142 -1.524683 26 2 1.6812926e+09
5.4098206 -7.7025533 -1.4869821 33 3 1.6812926e+09
2.2437813 -4.8808851 -1.4290438 16 0 1.6812926e+09
3.6631227 -5.2066679 -1.4594095 18 1 1.6812926e+09
3.8223889 -8.3331118 2.1051657 51 14 1.6812926e+09
5.5150499 -7.8349156 2.5544469 2 15 1.6812926e+09
3.8279963 -8.3453722 1.4453906 41 12 1.6812926e+09
5.4563971 -7.7861438 1.8396534 9 13 1.6812926e+09
3.8234441 -8.3431444 0.7998718 78 10 1.6812926e+09
5.4490499 -7.8016353 1.1625021 6 11 1.6812926e+09
3.8167944 -8.3363256 0.15942773 90 8 1.6812926e+09
5.4411721 -7.8077283 0.49692988 4 9 1.6812926e+09
3.8206408 -8.3524361 -0.48112515 64 6 1.6812926e+09
5.4422078 -7.815012 -0.16562332 7 7 1.6812926e+09
3.811789 -8.3446131 -1.1205169 41 4 1.6812926e+09
5.3768792 -7.7213173 -0.81849939 41 5 1.6812926e+09
3.2659869 -7.1590629 -1.5199213 24 2 1.6812926e+09
5.3843131 -7.7234149 -1.4873735 33 3 1.6812926e+09
2.2297311 -4.8952818 -1.4309835 16 0 1.6812926e+09
3.6351519 -5.2054491 -1.4554788 18 1 1.6812926e+09
3.7928278 -8.3492842 2.1057274 55 14 1.6812926e+09
5.4876809 -7.8570566 2.5550933 2 15 1.6812926e+09
3.7912579 -8.3458548 1.4430492 59 12 1.6812926e+09
5.4264216 -7.8040762 1.8391769 9 13 1.6812926e+09
3.7912104 -8.3496361 0.79921818 62 10 1.6812926e+09
5.4189548 -7.8165307 1.1618935 6 11 1.6812926e+09
3.7835431 -8.3404922 0.15925321 55 8 1.6812926e+09
5.4153061 -7.8287253 0.49706072 6 9 1.6812926e+09
3.7904322 -8.3634481 -0.4809939 42 6 1.6812926e+09
5.4063611 -7.8216276 -0.16536154 7 7 1.6812926e+09
3.7816153 -8.355608 -1.1202127 41 4 1.6812926e+09
5.3470597 -7.7359433 -0.81806445 42 5 1.6812926e+09
3.2187495 -7.1212134 -1.5094455 23 2 1.6812926e+09
5.3516974 -7.7340436 -1.4858075 32 3 1.6812926e+09
2.2066739 -4.8898258 -1.4271039 15 0 1.6812926e+09
3.6030662 -5.1980948 -1.4498636 18 1 1.6812926e+09
3.7611203 -8.3529282 2.1034813 56 14 1.6812926e+09
nan nan nan 0 15 1.6812926e+09
3.7655878 -8.3628845 1.4438297 60 12 1.6812926e+09
5.3963261 -7.8159709 1.837747 9 13 1.6812926e+09
3.7599988 -8.3582773 0.79878241 65 10 1.6812926e+09
5.3902297 -7.8333559 1.1615894 6 11 1.6812926e+09
3.7568886 -8.3552713 0.15929683 80 8 1.6812926e+09
5.3779998 -7.830183 0.496014 6 9 1.6812926e+09
3.7555187 -8.3600292 -0.48007497 62 6 1.6812926e+09
5.3761954 -7.8363304 -0.16527428 7 7 1.6812926e+09
3.7549014 -8.3703661 -1.1205169 41 4 1.6812926e+09
5.3185563 -7.749526 -0.81762958 42 5 1.6812926e+09
3.2099128 -7.1682482 -1.5170642 24 2 1.6812926e+09
5.3176732 -7.7425036 -1.4838499 33 3 1.6812926e+09
2.1925468 -4.9041138 -1.4290438 16 0 1.6812926e+09
3.5871916 -5.2120199 -1.450425 18 1 1.6812926e+09
3.7299562 -8.3615561 2.1023581 55 14 1.6812926e+09
23.360659 -33.909424 11.008742 14 15 1.6812926e+09
3.7303393 -8.3624458 1.4414883 59 12 1.6812926e+09
5.3606811 -7.822618 1.8348875 9 13 1.6812926e+09
3.7292197 -8.3638744 0.79812872 60 10 1.6812926e+09
5.3544497 -7.8398328 1.1597638 6 11 1.6812926e+09
3.7216005 -8.3546343 0.15903506 81 8 1.6812926e+09
5.3506346 -7.8489079 0.496014 7 9 1.6812926e+09
3.7222555 -8.3639641 -0.47954985 76 6 1.6812926e+09
5.3417697 -7.8447223 -0.16505612 7 7 1.6812926e+09
3.7256603 -8.3834219 -1.1205169 41 4 1.6812926e+09
5.2845063 -7.760736 -0.81675971 41 5 1.6812926e+09
3.1858661 -7.181653 -1.5175405 23 2 1.6812926e+09
5.2850471 -7.7528605 -1.4822838 32 3 1.6812926e+09
2.1783464 -4.9183626 -1.4309835 16 0 1.6812926e+09
3.5653138 -5.2211113 -1.449302 18 1 1.6812926e+09
3.7056677 -8.3856688 2.1051657 56 14 1.6812926e+09
23.218971 -33.956871 10.997757 14 15 1.6812926e+09
3.6991308 -8.3708992 1.4407078 60 12 1.6812926e+09
5.3291984 -7.8351965 1.8334576 9 13 1.6812926e+09
3.6985393 -8.3774862 0.79812872 73 10 1.6812926e+09
5.324265 -7.8543692 1.1591554 6 11 1.6812926e+09
3.6949871 -8.377367 0.15920956 95 8 1.6812926e+09
5.3176317 -7.8622637 0.49562147 8 9 1.6812926e+09
3.6875496 -8.3684111 -0.47902474 66 6 1.6812926e+09
5.3171554 -7.8674617 -0.16514339 8 7 1.6812926e+09
3.6969066 -8.4015636 -1.1211253 41 4 1.6812926e+09
5.2545934 -7.7750101 -0.81632489 41 5 1.6812926e+09
3.1696599 -7.2129536 -1.5218259 21 2 1.6812926e+09
5.253798 -7.7651281 -1.4811093 34 3 1.6812926e+09
2.1534088 -4.9082422 -1.4258106 16 0 1.6812926e+09
3.5498035 -5.2375555 -1.450425 19 1 1.6812926e+09
3.6700273 -8.3880329 2.1023581 55 14 1.6812926e+09
23.1486 -34.121681 11.023605 17 15 1.6812926e+09
3.6684253 -8.3844004 1.4407078 54 12 1.6812926e+09
5.2922029 -7.842474 1.8305981 9 13 1.6812926e+09
3.667279 -8.3857813 0.79769295 72 10 1.6812926e+09
5.2926569 -7.8667321 1.1582427 6 11 1.6812926e+09
3.6627212 -8.3833427 0.15907867 99 8 1.6812926e+09
5.2818007 -7.8683457 0.49483645 7 9 1.6812926e+09
3.6563196 -8.3766546 -0.47876218 96 6 1.6812926e+09
5.2799067 -7.8714476 -0.16483797 8 7 1.6812926e+09
3.665575 -8.4098673 -1.1205169 41 4 1.6812926e+09
5.2246447 -7.7891693 -0.81588995 42 5 1.6812926e+09
3.1630638 -7.2667327 -1.5308731 21 2 1.6812926e+09
5.2280388 -7.78547 -1.4815009 33 3 1.6812926e+09
2.1343393 -4.9112988 -1.4245173 15 0 1.6812926e+09
3.5287771 -5.2458744 -1.449302 18 1 1.6812926e+09
3.6450975 -8.4068632 2.1040428 55 14 1.6812926e+09
23.056911 -34.230305 11.033944 14 15 1.6812926e+09
3.6455109 -8.4078484 1.4426589 59 12 1.6812926e+09
5.2689009 -7.8640575 1.8315513 9 13 1.6812926e+09
3.6379848 -8.398531 0.79769295 73 10 1.6812926e+09
5.2596483 -7.8769064 1.1570257 6 11 1.6812926e+09
3.6358936 -8.3977365 0.1591223 75 8 1.6812926e+09
5.2529082 -7.8816638 0.49457476 7 9 1.6812926e+09
3.6275308 -8.3864422 -0.47863093 72 6 1.6812926e+09
5.2510114 -7.8877501 -0.16479434 8 7 1.6812926e+09
3.6327491 -8.4105854 -1.1189957 41 4 1.6812926e+09
5.1932607 -7.7981625 -0.81502008 42 5 1.6812926e+09
3.1163135 -7.2281442 -1.5203974 22 2 1.6812926e+09
5.1967192 -7.7975092 -1.4803262 33 3 1.6812926e+09
2.1133664 -4.9098449 -1.4219308 16 0 1.6812926e+09
3.5018804 -5.2433734 -1.4453713 17 1 1.6812926e+09
3.6109254 -8.4083424 2.1012352 42 14 1.6812926e+09
5.2978168 -7.9311862 2.5428152 3 15 1.6812926e+09
3.6122441 -8.4114456 1.4410981 60 12 1.6812926e+09
5.2318997 -7.8681011 1.8282152 9 13 1.6812926e+09
3.6150241 -8.4219942 0.79878241 78 10 1.6812926e+09
5.2334933 -7.8972869 1.15733 6 11 1.6812926e+09
3.6095121 -8.4172697 0.15925321 97 8 1.6812926e+09
5.2281208 -7.9041152 0.49483645 8 9 1.6812926e+09
3.603148 -8.4105291 -0.4792873 80 6 1.6812926e+09
5.2179303 -7.8976917 -0.16461982 8 7 1.6812926e+09
3.6062951 -8.4300594 -1.1199083 41 4 1.6812926e+09
5.1618958 -7.8129902 -0.81458521 41 5 1.6812926e+09
3.0428996 -7.1261134 -1.4965891 22 2 1.6812926e+09
5.1626534 -7.8053083 -1.4783686 34 3 1.6812926e+09
2.0905371 -4.9038615 -1.4180511 16 0 1.6812926e+09
3.4839857 -5.258203 -1.4459329 18 1 1.6812926e+09
3.5901306 -8.4410744 2.1062889 66 14 1.6812926e+09
5.2607508 -7.9355445 2.5382917 3 15 1.6812926e+09
3.5828607 -8.4240036 1.4410981 54 12 1.6812926e+09
5.2057552 -7.8883634 1.8286917 10 13 1.6812926e+09
3.5821843 -8.4306011 0.79834658 42 10 1.6812926e+09
5.1977077 -7.9030714 1.1555045 6 11 1.6812926e+09
3.5766847 -8.4258413 0.15916593 93 8 1.6812926e+09
5.1936321 -7.9148769 0.49431309 8 9 1.6812926e+09
3.5742466 -8.4282761 -0.47954985 67 6 1.6812926e+09
5.1834726 -7.9054093 -0.16440167 8 7 1.6812926e+09
3.5744061 -8.4409361 -1.1196041 41 4 1.6812926e+09
5.1263914 -7.8184676 -0.81328046 41 5 1.6812926e+09
3.0332925 -7.1728625 -1.5042078 19 2 1.6812926e+09
5.1340208 -7.8212185 -1.4779772 34 3 1.6812926e+09
2.0668368 -4.8955536 -1.4135246 17 0 1.6812926e+09
3.4575701 -5.2581253 -1.4425635 18 1 1.6812926e+09
3.5506647 -8.4339657 2.1012352 44 14 1.6812926e+09
5.2369428 -7.9628415 2.5408766 3 15 1.6812926e+09
3.5557919 -8.4461832 1.4426589 44 12 1.6812926e+09
5.1660461 -7.8909698 1.8248791 10 13 1.6812926e+09
3.5546656 -8.4476461 0.79878241 86 10 1.6812926e+09
5.1646585 -7.9128566 1.1542876 6 11 1.6812926e+09
3.5491874 -8.4428835 0.15925321 90 8 1.6812926e+09
5.1564298 -7.9183178 0.49339721 8 9 1.6812926e+09
3.5419059 -8.433795 -0.47915605 64 6 1.6812926e+09
5.1667604 -7.9402103 -0.16475071 9 7 1.6812926e+09
3.5468388 -8.4579401 -1.1202127 41 4 1.6812926e+09
5.0949912 -7.8300543 -0.81262809 40 5 1.6812926e+09
3.0006564 -7.1652956 -1.5003985 22 2 1.6812926e+09
5.1012926 -7.8308187 -1.4764111 34 3 1.6812926e+09
2.0385666 -4.8759985 -1.4057652 16 0 1.6812926e+09
3.4378624 -5.2681236 -1.4420022 18 1 1.6812926e+09
3.5264266 -8.454689 2.1034813 55 14 1.6812926e+09
5.2131515 -7.9842076 2.5421691 3 15 1.6812926e+09
3.5249131 -8.4510899 1.4414883 59 12 1.6812926e+09
5.1385117 -7.9060001 1.8244023 10 13 1.6812926e+09
3.5194108 -8.446207 0.79747504 64 10 1.6812926e+09
5.134306 -7.926672 1.153679 8 11 1.6812926e+09
3.5182884 -8.4476824 0.1591223 44 8 1.6812926e+09
5.1287866 -7.9332786 0.49326637 9 9 1.6812926e+09
3.5187116 -8.4570189 -0.47981241 43 6 1.6812926e+09
5.1200142 -7.9288082 -0.16413987 9 7 1.6812926e+09
3.5159168 -8.462779 -1.1193 41 4 1.6812926e+09
5.0595307 -7.8322682 -0.81110591 41 5 1.6812926e+09
2.971868 -7.166657 -1.4984938 22 2 1.6812926e+09
5.0739269 -7.8485775 -1.4764111 35 3 1.6812926e+09
