# .PCD v0.7 - Point Cloud Data file format
VERSION 0.7
FIELDS x y z intensity ring timestamp
SIZE 4 4 4 4 2 8
TYPE F F F F U F
COUNT 1 1 1 1 1 1
WIDTH 942
HEIGHT 1
VIEWPOINT 0 0 0 1 0 0 0
POINTS 942
DATA ascii
-23.244366 0.26424316 2.8458636 21 11 1.6812926e+09
-15.851135 3.0794017 0.28124553 30 8 1.6812926e+09
-23.261061 0.28471336 1.2173343 21 9 1.6812926e+09
-15.860053 3.0868807 -0.84777802 30 6 1.6812926e+09
-23.209259 0.29623771 -0.40454677 21 7 1.6812926e+09
-9.3598194 1.8260893 -1.1649361 25 4 1.6812926e+09
-12.727849 0.16230778 -1.1083664 23 5 1.6812926e+09
-7.1418195 1.3981088 -1.4051653 25 2 1.6812926e+09
-9.7500277 0.12203154 -1.5406199 19 3 1.6812926e+09
-6.0460553 1.1876979 -1.6404904 10 0 1.6812926e+09
-6.9552317 0.079922646 -1.5952991 7 1 1.6812926e+09
-15.676986 3.0938244 3.6751962 31 14 1.6812926e+09
nan nan nan 0 15 1.6812926e+09
-15.711123 3.1005776 2.525141 29 12 1.6812926e+09
-21.7299 0.28908667 4.2135687 35 13 1.6812926e+09
-15.712779 3.1037605 1.398196 25 10 1.6812926e+09
-23.057217 0.34265116 2.8230455 22 11 1.6812926e+09
-15.744662 3.1157787 0.27954391 29 8 1.6812926e+09
-23.055231 0.36272803 1.2066054 21 9 1.6812926e+09
-15.761024 3.1247361 -0.84305209 31 6 1.6812926e+09
-23.01314 0.37412077 -0.40114352 22 7 1.6812926e+09
-9.2803745 1.8442267 -1.1558087 21 4 1.6812926e+09
-12.632542 0.20743701 -1.1001033 23 5 1.6812926e+09
-7.1128283 1.418225 -1.4004037 22 2 1.6812926e+09
-9.6804142 0.15499087 -1.5296575 19 3 1.6812926e+09
-6.0537119 1.2111676 -1.6437236 10 0 1.6812926e+09
-6.9621992 0.10552017 -1.5969836 7 1 1.6812926e+09
-15.563393 3.127877 3.6510503 26 14 1.6812926e+09
-22.320662 0.32805225 5.9638228 30 15 1.6812926e+09
-15.61063 3.1373882 2.5107026 27 12 1.6812926e+09
-21.745935 0.36522126 4.2169051 34 13 1.6812926e+09
-15.618291 3.1446075 1.3907877 25 10 1.6812926e+09
-22.869801 0.41975588 2.8002274 22 11 1.6812926e+09
-15.640027 3.1546741 0.27788591 25 8 1.6812926e+09
-22.856552 0.44344091 1.1962692 22 9 1.6812926e+09
-15.671159 3.1666503 -0.83885121 30 6 1.6812926e+09
-15.751687 0.31251496 -0.27439544 6 7 1.6812926e+09
-9.2832813 1.8802006 -1.1570257 21 4 1.6812926e+09
-12.57945 0.25050926 -1.0955366 22 5 1.6812926e+09
-7.1030245 1.4420671 -1.3994514 22 2 1.6812926e+09
-9.6106911 0.18746571 -1.518695 18 3 1.6812926e+09
-6.047081 1.2318088 -1.643077 10 0 1.6812926e+09
-6.9520454 0.12964697 -1.5947375 7 1 1.6812926e+09
-15.480228 3.1702282 3.6342049 24 14 1.6812926e+09
-22.229967 0.40823749 5.9399128 21 15 1.6812926e+09
-15.531291 3.1807036 2.4997764 24 12 1.6812926e+09
-21.746906 0.44497135 4.2173815 33 13 1.6812926e+09
-15.529147 3.183095 1.3838153 24 10 1.6812926e+09
-22.672125 0.49929863 2.7761924 22 11 1.6812926e+09
-15.557915 3.1946604 0.27662063 26 8 1.6812926e+09
-22.680149 0.51925766 1.1871103 22 9 1.6812926e+09
-15.567089 3.2022088 -0.83386278 30 6 1.6812926e+09
-15.740504 0.36726639 -0.27422091 11 7 1.6812926e+09
-9.3009624 1.9176089 -1.160068 22 4 1.6812926e+09
-12.394248 0.29017264 -1.079445 22 5 1.6812926e+09
-7.0640464 1.4611237 -1.3927851 23 2 1.6812926e+09
-9.5210733 0.22067271 -1.5046004 18 3 1.6812926e+09
-6.0522022 1.2548734 -1.6456634 11 0 1.6812926e+09
-6.9588575 0.15407023 -1.5964222 8 1 1.6812926e+09
-15.385599 3.2068379 3.6145511 30 14 1.6812926e+09
-22.035248 0.48165107 5.8882165 18 15 1.6812926e+09
-15.425817 3.2152376 2.4845576 22 12 1.6812926e+09
-21.730499 0.52053005 4.2145224 35 13 1.6812926e+09
-15.439927 3.2209985 1.3768429 26 10 1.6812926e+09
-22.489157 0.5738523 2.7539828 23 11 1.6812926e+09
-15.463481 3.2315545 0.27513716 26 8 1.6812926e+09
-22.505995 0.59391367 1.1780823 22 9 1.6812926e+09
-15.477623 3.2401502 -0.82966191 31 6 1.6812926e+09
-22.475729 0.60096604 -0.39185014 1 7 1.6812926e+09
-9.3112135 1.9536337 -1.1621978 22 4 1.6812926e+09
-12.500216 0.33627561 -1.0887955 21 5 1.6812926e+09
-7.0420923 1.4822304 -1.3894517 23 2 1.6812926e+09
-9.4486637 0.25203171 -1.4932463 19 3 1.6812926e+09
-6.0454221 1.2754927 -1.6450168 11 0 1.6812926e+09
-6.9607124 0.17842104 -1.5969836 7 1 1.6812926e+09
-15.298053 3.2443426 3.5965822 29 14 1.6812926e+09
-21.852364 0.55401373 5.8397512 21 15 1.6812926e+09
-15.327538 3.250612 2.4705095 23 12 1.6812926e+09
-21.67458 0.59491062 4.2040372 31 13 1.6812926e+09
-15.34576 3.2572832 1.3694346 24 10 1.6812926e+09
-22.313505 0.64345473 2.732686 24 11 1.6812926e+09
-15.371425 3.268348 0.27369735 23 8 1.6812926e+09
-22.326605 0.66721201 1.1687926 23 9 1.6812926e+09
-15.378317 3.2754259 -0.82493603 31 6 1.6812926e+09
-15.932439 0.48299801 -0.27762413 11 7 1.6812926e+09
-9.3067627 1.9866424 -1.1625021 24 4 1.6812926e+09
-12.406857 0.37714159 -1.0807498 23 5 1.6812926e+09
-7.0083404 1.4994062 -1.3837378 23 2 1.6812926e+09
-9.3638601 0.28088734 -1.4799347 22 3 1.6812926e+09
-6.036211 1.2955725 -1.6437236 16 0 1.6812926e+09
-6.9673524 0.20292525 -1.5986682 7 1 1.6812926e+09
-15.218152 3.2801621 3.5802979 25 14 1.6812926e+09
-21.679005 0.6215983 5.7938704 18 15 1.6812926e+09
-15.239432 3.2847638 2.4580224 23 12 1.6812926e+09
-21.581724 0.66400975 4.1864028 23 13 1.6812926e+09
-15.258832 3.2945282 1.36268 25 10 1.6812926e+09
-22.135031 0.71568257 2.7110851 24 11 1.6812926e+09
-15.277434 3.3013434 0.27221391 24 8 1.6812926e+09
-22.144615 0.73531777 1.1593722 24 9 1.6812926e+09
-15.299051 3.3116078 -0.82126027 29 6 1.6812926e+09
-22.096252 0.74529821 -0.38530546 1 7 1.6812926e+09
-9.2758751 2.0122287 -1.1594597 22 4 1.6812926e+09
-12.37318 0.41720301 -1.0779228 22 5 1.6812926e+09
-6.9694924 1.5165471 -1.3770716 24 2 1.6812926e+09
-9.2863207 0.31104711 -1.4677976 24 3 1.6812926e+09
-6.0387297 1.318182 -1.6456634 23 0 1.6812926e+09
-6.9690766 0.22610608 -1.5992298 8 1 1.6812926e+09
-15.128083 3.3160412 3.5617678 23 14 1.6812926e+09
-21.502907 0.69171554 5.747344 18 15 1.6812926e+09
-15.143453 3.3194244 2.4443645 26 12 1.6812926e+09
-21.414942 0.73374498 4.1544714 21 13 1.6812926e+09
-15.177279 3.3296258 1.3563613 24 10 1.6812926e+09
-21.96129 0.78684896 2.6900923 26 11 1.6812926e+09
-15.192578 3.3385491 0.27090496 23 8 1.6812926e+09
-21.964775 0.80614793 1.1500826 24 9 1.6812926e+09
-15.202063 3.3461978 -0.81666565 31 6 1.6812926e+09
-21.946283 0.81313813 -0.38273126 24 7 1.6812926e+09
-8.934411 1.9707706 -1.1174744 23 4 1.6812926e+09
-12.351736 0.45965734 -1.0761832 22 5 1.6812926e+09
-6.8179913 1.5084887 -1.3480254 24 2 1.6812926e+09
-9.2160883 0.34093919 -1.4568353 26 3 1.6812926e+09
-6.0272527 1.3366294 -1.6437236 26 0 1.6812926e+09
-6.9779825 0.25077477 -1.6014758 7 1 1.6812926e+09
-15.035573 3.3508017 3.5426757 22 14 1.6812926e+09
-21.307283 0.7599268 5.6956477 19 15 1.6812926e+09
-15.059468 3.3561423 2.432658 24 12 1.6812926e+09
-21.243034 0.80213988 4.1215858 19 13 1.6812926e+09
-15.095074 3.3668537 1.3500425 26 10 1.6812926e+09
-21.779882 0.8565203 2.6681871 24 11 1.6812926e+09
-15.10277 3.3741119 0.26950878 24 8 1.6812926e+09
-21.792194 0.87603092 1.1411855 25 9 1.6812926e+09
-15.119639 3.3834243 -0.81285864 29 6 1.6812926e+09
-21.770975 0.88278818 -0.37972072 24 7 1.6812926e+09
-8.8984241 1.9954246 -1.1138237 22 4 1.6812926e+09
-12.31273 0.50126439 -1.0729214 23 5 1.6812926e+09
-6.848598 1.5403657 -1.3551679 23 2 1.6812926e+09
-9.1432934 0.37024611 -1.4454812 26 3 1.6812926e+09
-6.0201945 1.3571285 -1.643077 30 0 1.6812926e+09
-6.9794993 0.27522534 -1.6020373 7 1 1.6812926e+09
-14.951918 3.3897209 3.5258298 22 14 1.6812926e+09
-21.14991 0.8319757 5.6542907 19 15 1.6812926e+09
-14.977229 3.3954747 2.4213414 24 12 1.6812926e+09
-21.083017 0.87352639 4.091084 21 13 1.6812926e+09
-15.014629 3.4067194 1.3439416 24 10 1.6812926e+09
-21.605698 0.92525178 2.6471944 24 11 1.6812926e+09
-15.014742 3.4122629 0.2681562 24 8 1.6812926e+09
-21.636692 0.94925463 1.1332042 25 9 1.6812926e+09
-15.019505 3.4188602 -0.80813271 30 6 1.6812926e+09
-21.600283 0.95521337 -0.37679744 24 7 1.6812926e+09
-8.8547621 2.0197411 -1.10926 21 4 1.6812926e+09
-12.315786 0.54660851 -1.0733563 23 5 1.6812926e+09
-6.9316983 1.5845195 -1.372786 23 2 1.6812926e+09
-9.0753403 0.39926353 -1.4349102 23 3 1.6812926e+09
-6.0151801 1.3791845 -1.643077 31 0 1.6812926e+09
-6.9760094 0.30070135 -1.6014758 8 1 1.6812926e+09
-14.864628 3.421788 3.5078609 23 14 1.6812926e+09
-20.987783 0.89534855 5.6116409 16 15 1.6812926e+09
-14.896102 3.4290495 2.4100249 25 12 1.6812926e+09
-20.893677 0.93513715 4.054863 22 13 1.6812926e+09
-14.924989 3.4411955 1.336969 24 10 1.6812926e+09
-21.451132 0.99369222 2.6286359 27 11 1.6812926e+09
-14.922971 3.4434793 0.26671639 25 8 1.6812926e+09
-21.456366 1.0126804 1.1239146 25 9 1.6812926e+09
-14.93998 3.4528992 -0.80445701 30 6 1.6812926e+09
-21.417048 1.0220659 -0.373656 25 7 1.6812926e+09
-8.840764 2.0474126 -1.1083473 23 4 1.6812926e+09
-12.296491 0.58662176 -1.0718341 23 5 1.6812926e+09
-6.9117818 1.6053711 -1.369929 22 2 1.6812926e+09
-9.0048332 0.42769527 -1.4239478 24 3 1.6812926e+09
-6.012681 1.4007215 -1.6437236 30 0 1.6812926e+09
-6.982275 0.32416707 -1.6031604 8 1 1.6812926e+09
-14.769571 3.4542279 3.4882076 25 14 1.6812926e+09
-20.82048 0.96106863 5.567699 19 15 1.6812926e+09
-14.821527 3.4663978 2.399879 25 12 1.6812926e+09
-20.7383 1.0007637 4.0253143 19 13 1.6812926e+09
-14.843175 3.4742019 1.3306503 26 10 1.6812926e+09
-21.283958 1.0604501 2.608556 23 11 1.6812926e+09
-14.845153 3.4801376 0.26553833 24 8 1.6812926e+09
-21.293119 1.0795147 1.1155409 26 9 1.6812926e+09
-14.857353 3.4884713 -0.80065 30 6 1.6812926e+09
-21.268559 1.0894338 -0.3711254 25 7 1.6812926e+09
-8.8480549 2.0816724 -1.1101726 23 4 1.6812926e+09
-12.261924 0.63003743 -1.0690072 23 5 1.6812926e+09
-6.8798623 1.6232818 -1.3646913 22 2 1.6812926e+09
-8.9367027 0.45576409 -1.4133768 22 3 1.6812926e+09
-6.0054049 1.4211445 -1.643077 30 0 1.6812926e+09
-6.98104 0.34975618 -1.6031604 7 1 1.6812926e+09
-14.693432 3.4905522 3.4730463 26 14 1.6812926e+09
-20.669863 1.0264664 5.5282803 19 15 1.6812926e+09
-14.734861 3.5004122 2.3877821 26 12 1.6812926e+09
-20.563118 1.0643066 3.9919524 18 13 1.6812926e+09
-14.764926 3.5130093 1.3247674 26 10 1.6812926e+09
-21.111628 1.1257898 2.5878677 24 11 1.6812926e+09
-14.75449 3.515974 0.26414216 26 8 1.6812926e+09
-21.126982 1.148775 1.1070364 27 9 1.6812926e+09
-14.776477 3.5266674 -0.7969743 30 6 1.6812926e+09
-21.087416 1.1540087 -0.3680276 27 7 1.6812926e+09
-8.8307142 2.111778 -1.1089557 24 4 1.6812926e+09
-12.140283 0.66632915 -1.0585693 24 5 1.6812926e+09
-6.8574486 1.6432796 -1.361358 21 2 1.6812926e+09
-8.8709517 0.48349568 -1.4031974 22 3 1.6812926e+09
-6.0004077 1.4420985 -1.643077 29 0 1.6812926e+09
-6.984642 0.37437999 -1.6042836 8 1 1.6812926e+09
-14.607131 3.5266509 3.4556389 27 14 1.6812926e+09
-20.504381 1.0936371 5.4849849 17 15 1.6812926e+09
-14.654724 3.5381598 2.3768559 23 12 1.6812926e+09
-20.409603 1.1314148 3.9628806 15 13 1.6812926e+09
-14.675109 3.5458012 1.3177948 29 10 1.6812926e+09
-20.948805 1.1941568 2.5683963 26 11 1.6812926e+09
-14.681392 3.5527506 0.26305136 29 8 1.6812926e+09
-20.970804 1.2137485 1.0990551 25 9 1.6812926e+09
-14.686437 3.5593994 -0.79277349 32 6 1.6812926e+09
-20.936029 1.2190698 -0.36545336 25 7 1.6812926e+09
-8.7943525 2.1355577 -1.1053048 23 4 1.6812926e+09
-12.103073 0.70668328 -1.0555249 25 5 1.6812926e+09
-6.825151 1.6620085 -1.3561202 19 2 1.6812926e+09
-8.814889 0.51287919 -1.3945839 23 3 1.6812926e+09
-5.9929914 1.4624619 -1.6424303 26 0 1.6812926e+09
-6.9832931 0.39875862 -1.6042836 8 1 1.6812926e+09
-14.540313 3.5642712 3.4427238 27 14 1.6812926e+09
-20.331656 1.1556495 5.4397507 18 15 1.6812926e+09
-14.570335 3.5716469 2.365149 23 12 1.6812926e+09
-20.287933 1.1957467 3.9400039 11 13 1.6812926e+09
-14.594919 3.5803831 1.3116939 24 10 1.6812926e+09
-20.790939 1.2580162 2.5495334 27 11 1.6812926e+09
-14.593653 3.58548 0.26169881 24 8 1.6812926e+09
-20.814432 1.2776457 1.0910739 25 9 1.6812926e+09
-14.613318 3.5957232 -0.78949159 34 6 1.6812926e+09
-20.784447 1.2830881 -0.36287913 27 7 1.6812926e+09
-8.7458897 2.1561375 -1.1001328 24 4 1.6812926e+09
-11.958841 0.74021071 -1.04313 19 5 1.6812926e+09
-6.8240728 1.6870017 -1.3570726 21 2 1.6812926e+09
-8.7810059 0.54168612 -1.3894942 21 3 1.6812926e+09
-5.9972253 1.4856979 -1.6450168 23 0 1.6812926e+09
-6.9842901 0.42327821 -1.604845 8 1 1.6812926e+09
-14.445044 3.5944064 3.4230704 25 14 1.6812926e+09
-20.19009 1.2183533 5.4029169 22 15 1.6812926e+09
-14.476309 3.6022027 2.3518815 23 12 1.6812926e+09
-20.185659 1.2604619 3.9209399 9 13 1.6812926e+09
-14.502584 3.6114385 1.3045036 24 10 1.6812926e+09
-20.469673 1.3067898 2.5105906 29 11 1.6812926e+09
-14.517992 3.6206658 0.26056442 24 8 1.6812926e+09
-20.291641 1.316783 1.0638591 26 9 1.6812926e+09
-14.523171 3.6273439 -0.78529078 33 6 1.6812926e+09
-20.602743 1.3441169 -0.35978135 25 7 1.6812926e+09
-8.6973896 2.1764052 -1.0949607 24 4 1.6812926e+09
-11.851803 0.77516371 -1.0339969 21 5 1.6812926e+09
-6.8065386 1.7066345 -1.3546917 19 2 1.6812926e+09
-8.7249537 0.56730604 -1.380881 18 3 1.6812926e+09
-5.9896612 1.5060335 -1.6443703 19 0 1.6812926e+09
-6.9803386 0.44750109 -1.6042836 8 1 1.6812926e+09
-14.371634 3.6267827 3.4084706 24 14 1.6812926e+09
-20.043736 1.276278 5.3647909 19 15 1.6812926e+09
-14.392456 3.6320527 2.3401747 23 12 1.6812926e+09
-19.983009 1.3143917 3.8823359 25 13 1.6812926e+09
-14.424697 3.6455557 1.2986206 22 10 1.6812926e+09
-19.937632 1.3428376 2.4457874 41 11 1.6812926e+09
-14.430785 3.6497812 0.25921187 25 8 1.6812926e+09
-19.980793 1.3632326 1.0477659 39 9 1.6812926e+09
-14.44814 3.6595395 -0.78187758 35 6 1.6812926e+09
-19.994434 1.3746723 -0.34922263 25 7 1.6812926e+09
-8.6756945 2.20157 -1.0931352 23 4 1.6812926e+09
-11.886438 0.81700891 -1.0372589 19 5 1.6812926e+09
-6.8052964 1.7315949 -1.3556441 19 2 1.6812926e+09
-8.7401638 0.59893084 -1.3836216 17 3 1.6812926e+09
-5.9937263 1.5293231 -1.6469567 16 0 1.6812926e+09
-6.9861088 0.47113323 -1.605968 8 1 1.6812926e+09
-14.281008 3.656975 3.3899403 23 14 1.6812926e+09
-19.872896 1.3351054 5.3202028 17 15 1.6812926e+09
-14.312713 3.6651099 2.3292484 23 12 1.6812926e+09
-19.841192 1.3746704 3.8556468 22 13 1.6812926e+09
-14.342567 3.6754327 1.2923018 24 10 1.6812926e+09
-19.789257 1.402285 2.4281416 21 11 1.6812926e+09
-14.355009 3.6839693 0.25807744 24 8 1.6812926e+09
-19.801598 1.4205059 1.038607 22 9 1.6812926e+09
-14.365161 3.691921 -0.77807063 31 6 1.6812926e+09
-19.834938 1.433323 -0.3465175 32 7 1.6812926e+09
-8.6655531 2.231221 -1.092831 22 4 1.6812926e+09
-11.880879 0.86039042 -1.0370413 21 5 1.6812926e+09
-6.7944584 1.7541112 -1.3546917 19 2 1.6812926e+09
-8.7404823 0.62961221 -1.3840131 18 3 1.6812926e+09
-5.9906893 1.5508416 -1.6476034 16 0 1.6812926e+09
-6.9843345 0.49673539 -1.605968 8 1 1.6812926e+09
-14.195066 3.6878047 3.3725328 24 14 1.6812926e+09
-19.730797 1.394792 5.2833691 18 15 1.6812926e+09
-14.223353 3.6951699 2.3167613 24 12 1.6812926e+09
-19.684513 1.4329093 3.8260977 27 13 1.6812926e+09
-14.261517 3.7104106 1.2862009 25 10 1.6812926e+09
-19.635763 1.460346 2.4098871 33 11 1.6812926e+09
-14.271264 3.7182736 0.25681213 24 8 1.6812926e+09
-19.626966 1.4803438 1.0297099 39 9 1.6812926e+09
-14.286309 3.7275217 -0.77452618 26 6 1.6812926e+09
-19.712664 1.4937016 -0.34446684 32 7 1.6812926e+09
-8.6165056 2.2522907 -1.087659 24 4 1.6812926e+09
-11.880288 0.90204483 -1.0372589 21 5 1.6812926e+09
-6.7693019 1.7728387 -1.3508824 21 2 1.6812926e+09
-8.7480812 0.6608572 -1.3855791 21 3 1.6812926e+09
-5.9805684 1.5705155 -1.6463101 17 0 1.6812926e+09
-6.9825583 0.52111226 -1.605968 8 1 1.6812926e+09
-14.110788 3.7211635 3.3556871 25 14 1.6812926e+09
-19.57864 1.456208 5.2439508 40 15 1.6812926e+09
-14.140472 3.729008 2.3054447 25 12 1.6812926e+09
-19.546988 1.4949722 3.8003616 26 13 1.6812926e+09
-14.169014 3.7391894 1.2790105 24 10 1.6812926e+09
-19.509325 1.519466 2.3949795 17 11 1.6812926e+09
-14.195369 3.7514546 0.25567773 26 8 1.6812926e+09
-19.467371 1.5367013 1.0215979 39 9 1.6812926e+09
-14.217704 3.7626703 -0.77150685 17 6 1.6812926e+09
-12.201893 0.96917558 -0.21305023 7 7 1.6812926e+09
-8.613389 2.2836273 -1.0882674 23 4 1.6812926e+09
-11.896928 0.94507933 -1.0389984 22 5 1.6812926e+09
-6.7464695 1.7920426 -1.3475492 21 2 1.6812926e+09
-8.7358742 0.69061643 -1.3840131 22 3 1.6812926e+09
-5.9797168 1.5926263 -1.6476034 17 0 1.6812926e+09
-6.9831257 0.54567093 -1.6065296 8 1 1.6812926e+09
-14.030122 3.7496867 3.3394027 27 14 1.6812926e+09
-19.47257 1.51329 5.2168097 22 15 1.6812926e+09
-14.06839 3.7599318 2.2956891 27 12 1.6812926e+09
-19.412264 1.5494658 3.7751024 19 13 1.6812926e+09
-14.098138 3.7731659 1.2737812 23 10 1.6812926e+09
-19.360451 1.5759145 2.3773334 16 11 1.6812926e+09
-14.108001 3.7784522 0.25432518 25 8 1.6812926e+09
-19.33029 1.59043 1.0146632 35 9 1.6812926e+09
-14.137632 3.7916815 -0.76783109 23 6 1.6812926e+09
-12.18847 1.0109395 -0.21287571 9 7 1.6812926e+09
-8.63692 2.3205538 -1.0922225 24 4 1.6812926e+09
-11.913587 0.98616195 -1.0407381 21 5 1.6812926e+09
-6.7449121 1.8168592 -1.3485016 19 2 1.6812926e+09
-8.6743488 0.71626079 -1.3746166 26 3 1.6812926e+09
-5.9811149 1.6153808 -1.6495433 18 0 1.6812926e+09
-6.9861345 0.56921726 -1.6076527 8 1 1.6812926e+09
-13.962869 3.7839756 3.3264878 32 14 1.6812926e+09
-19.298672 1.5676069 5.1715755 19 15 1.6812926e+09
-13.986063 3.7902772 2.2843726 31 12 1.6812926e+09
-19.264885 1.6054306 3.7474597 18 13 1.6812926e+09
-14.008634 3.7990277 1.2668087 24 10 1.6812926e+09
-19.226255 1.632598 2.3615129 18 11 1.6812926e+09
-14.041658 3.8132572 0.25336531 26 8 1.6812926e+09
-19.187811 1.6461908 1.0074672 37 9 1.6812926e+09
-14.052041 3.8213453 -0.76389283 33 6 1.6812926e+09
-19.287514 1.6648883 -0.33731136 31 7 1.6812926e+09
-8.6263733 2.3500357 -1.0919183 24 4 1.6812926e+09
-11.914853 1.0302479 -1.041173 22 5 1.6812926e+09
-6.7551007 1.8449225 -1.3518348 18 2 1.6812926e+09
-8.6250525 0.74253643 -1.3671777 29 3 1.6812926e+09
-5.9614654 1.6324182 -1.6456634 17 0 1.6812926e+09
-6.9888563 0.59522909 -1.6087757 8 1 1.6812926e+09
-13.900246 3.8191326 3.3146956 27 14 1.6812926e+09
-19.17757 1.6252017 5.1405578 21 15 1.6812926e+09
-13.91322 3.8227117 2.274617 27 12 1.6812926e+09
-19.127134 1.6612331 3.7217236 19 13 1.6812926e+09
-13.932184 3.8331616 1.2611436 24 10 1.6812926e+09
-19.101793 1.6892368 2.3469095 18 11 1.6812926e+09
-13.952886 3.8441062 0.25201273 25 8 1.6812926e+09
-19.03742 1.7036346 0.99987841 30 9 1.6812926e+09
-13.98259 3.8575459 -0.7608735 23 6 1.6812926e+09
-19.137186 1.7192658 -0.33478075 31 7 1.6812926e+09
-8.6368351 2.3869286 -1.0943521 25 4 1.6812926e+09
-11.849169 1.0662756 -1.0357366 22 5 1.6812926e+09
nan nan nan 0 2 1.6812926e+09
-8.6002731 0.77066743 -1.3636541 31 3 1.6812926e+09
-5.9417701 1.6493381 -1.6417837 17 0 1.6812926e+09
-6.9843092 0.61940759 -1.6082141 8 1 1.6812926e+09
-13.827489 3.8536963 3.3006575 27 14 1.6812926e+09
-19.051199 1.6848718 5.1082473 22 15 1.6812926e+09
-13.849166 3.8597531 2.2664223 29 12 1.6812926e+09
-19.006039 1.7209524 3.6993237 21 13 1.6812926e+09
-13.839557 3.8596833 1.2539532 25 10 1.6812926e+09
-18.959568 1.7467489 2.3301761 18 11 1.6812926e+09
-13.871975 3.8739541 0.25079107 25 8 1.6812926e+09
-18.924463 1.760161 0.99425226 38 9 1.6812926e+09
-8.7470474 2.4453762 -0.47574285 8 6 1.6812926e+09
-19.001648 1.7740053 -0.33251196 32 7 1.6812926e+09
-8.6595125 2.42577 -1.0983074 22 4 1.6812926e+09
-11.944568 1.1168673 -1.0444348 19 5 1.6812926e+09
-6.4463916 1.8101987 -1.2923141 16 2 1.6812926e+09
-8.5260925 0.79556966 -1.3523002 21 3 1.6812926e+09
-5.9290028 1.6681045 -1.6398438 18 0 1.6812926e+09
-6.9918084 0.6446718 -1.6104604 9 1 1.6812926e+09
-13.748313 3.8833899 3.2849348 26 14 1.6812926e+09
-18.912931 1.7392319 5.0727067 19 15 1.6812926e+09
-13.773825 3.8906124 2.2562766 30 12 1.6812926e+09
-18.870413 1.7751352 3.6740642 21 13 1.6812926e+09
-13.773276 3.8930597 1.2491597 25 10 1.6812926e+09
-18.837255 1.8018426 2.3158767 18 11 1.6812926e+09
-13.800646 3.9060085 0.24974392 26 8 1.6812926e+09
-18.813831 1.8161589 0.98875701 38 9 1.6812926e+09
-8.7600737 2.4820235 -0.47692433 9 6 1.6812926e+09
-18.880892 1.829262 -0.33050492 33 7 1.6812926e+09
-8.6414433 2.4532697 -1.0970904 24 4 1.6812926e+09
-11.972824 1.1616693 -1.0472617 22 5 1.6812926e+09
-6.574573 1.8710144 -1.3194555 23 2 1.6812926e+09
-8.4741077 0.82059324 -1.3444698 23 3 1.6812926e+09
-5.8999228 1.6821625 -1.6333777 19 0 1.6812926e+09
-6.9822397 0.66838235 -1.6087757 8 1 1.6812926e+09
-13.676123 3.9145901 3.2708967 24 14 1.6812926e+09
-18.78413 1.793563 5.0397501 21 15 1.6812926e+09
-13.70556 3.9230325 2.2473013 30 12 1.6812926e+09
-18.746859 1.829581 3.6511879 21 13 1.6812926e+09
-13.687779 3.920532 1.242623 25 10 1.6812926e+09
-18.70524 1.8518622 2.3003607 18 11 1.6812926e+09
-13.717249 3.9341648 0.24847861 26 8 1.6812926e+09
-18.71546 1.872646 0.98391593 21 9 1.6812926e+09
-13.751869 3.9492946 -0.75050271 1 6 1.6812926e+09
-18.727648 1.880459 -0.32793069 32 7 1.6812926e+09
-8.6185198 2.4793005 -1.0952649 24 4 1.6812926e+09
-12.038083 1.2104053 -1.0533504 21 5 1.6812926e+09
-6.5612583 1.8907657 -1.318027 23 2 1.6812926e+09
-8.4615107 0.84771061 -1.3429037 22 3 1.6812926e+09
-5.8708162 1.6960377 -1.6269113 19 0 1.6812926e+09
-6.9871378 0.69346774 -1.6104604 8 1 1.6812926e+09
-13.595214 3.9402459 3.2546122 23 14 1.6812926e+09
-18.657911 1.8439975 5.0074396 23 15 1.6812926e+09
-13.623697 3.9485173 2.2359848 24 12 1.6812926e+09
-18.599064 1.8774769 3.6235454 18 13 1.6812926e+09
-13.611826 3.950233 1.2369579 25 10 1.6812926e+09
-18.565359 1.9035101 2.2839317 18 11 1.6812926e+09
-13.64892 3.9635918 0.2474751 26 8 1.6812926e+09
-18.602362 1.9236819 0.97828978 16 9 1.6812926e+09
-13.657193 3.9711654 -0.74603933 30 6 1.6812926e+09
-18.621519 1.9355068 -0.32618546 33 7 1.6812926e+09
-8.5888109 2.5016177 -1.0925268 22 4 1.6812926e+09
-12.053822 1.25237 -1.0550901 21 5 1.6812926e+09
-6.5310612 1.9067731 -1.3132653 18 2 1.6812926e+09
-8.4216595 0.87344092 -1.3370309 23 3 1.6812926e+09
-5.8393674 1.7090514 -1.6197984 18 0 1.6812926e+09
-6.9799519 0.71614015 -1.6093372 9 1 1.6812926e+09
-13.525282 3.9712 3.2411356 24 14 1.6812926e+09
-18.524025 1.8961127 4.9731908 24 15 1.6812926e+09
-13.555339 3.980042 2.2270098 22 12 1.6812926e+09
-18.467909 1.929414 3.5992389 18 13 1.6812926e+09
-13.531748 3.9756839 1.2308569 26 10 1.6812926e+09
-18.427816 1.9544654 2.267807 19 11 1.6812926e+09
-13.56786 3.9914503 0.24625345 26 8 1.6812926e+09
-18.468925 1.9750966 0.97161704 18 9 1.6812926e+09
-13.564221 3.9955254 -0.74170727 30 6 1.6812926e+09
-18.487894 1.9869053 -0.32396027 30 7 1.6812926e+09
-8.6204834 2.5435283 -1.0976988 21 4 1.6812926e+09
-12.10363 1.3023825 -1.0598741 21 5 1.6812926e+09
-6.5596647 1.9400084 -1.3204077 22 2 1.6812926e+09
-8.4529333 0.90650004 -1.3425122 23 3 1.6812926e+09
-5.8078995 1.721866 -1.6126854 19 0 1.6812926e+09
-6.9869704 0.74274164 -1.6115834 8 1 1.6812926e+09
-13.443624 3.9982402 3.2248514 26 14 1.6812926e+09
-18.397209 1.9480772 4.9408808 22 15 1.6812926e+09
-13.475092 4.007616 2.2160833 22 12 1.6812926e+09
-18.343941 1.9812474 3.5763626 21 13 1.6812926e+09
-13.462189 4.0088987 1.2258455 26 10 1.6812926e+09
-18.317278 2.0074503 2.2550287 21 11 1.6812926e+09
-13.505232 4.0268617 0.24538082 27 8 1.6812926e+09
-18.35486 2.0309951 0.9659909 16 9 1.6812926e+09
-13.506429 4.0323529 -0.7393443 31 6 1.6812926e+09
-18.376501 2.0398712 -0.32212779 30 7 1.6812926e+09
-8.5944614 2.570127 -1.0955691 24 4 1.6812926e+09
-12.143566 1.3495589 -1.0637882 22 5 1.6812926e+09
-6.559906 1.9650087 -1.3218364 22 2 1.6812926e+09
-8.3883591 0.92923772 -1.3327243 21 3 1.6812926e+09
-5.7741013 1.7337871 -1.604926 21 0 1.6812926e+09
-6.9891787 0.76765496 -1.6127064 9 1 1.6812926e+09
-13.377566 4.0320139 3.2124977 26 14 1.6812926e+09
-18.277109 2.0031557 4.9105091 19 15 1.6812926e+09
-13.403572 4.0398684 2.206718 23 12 1.6812926e+09
-18.234118 2.0370498 3.5563455 23 13 1.6812926e+09
-13.393273 4.0393195 1.220834 27 10 1.6812926e+09
-18.193913 2.0614717 2.2407296 21 11 1.6812926e+09
-13.426488 4.0544615 0.24420278 29 8 1.6812926e+09
-18.20627 2.0789437 0.95853305 16 9 1.6812926e+09
-13.430141 4.0606813 -0.7359311 29 6 1.6812926e+09
-18.245094 2.0898132 -0.31994623 29 7 1.6812926e+09
nan nan nan 0 4 1.6812926e+09
-12.230334 1.4024031 -1.0718341 22 5 1.6812926e+09
-6.5972762 2.0025945 -1.3308834 22 2 1.6812926e+09
-8.3775368 0.95913774 -1.3315496 22 3 1.6812926e+09
-5.7449117 1.7468994 -1.5984597 23 0 1.6812926e+09
-6.9888778 0.79231995 -1.6132679 9 1 1.6812926e+09
-13.307491 4.0616107 3.1990209 29 14 1.6812926e+09
-18.142818 2.0525863 4.8762603 23 15 1.6812926e+09
-13.332706 4.0693231 2.1973526 22 12 1.6812926e+09
-18.10499 2.0866678 3.5325158 23 13 1.6812926e+09
-13.319548 4.067853 1.2153869 29 10 1.6812926e+09
-18.090479 2.1137609 2.2288642 22 11 1.6812926e+09
-13.350106 4.0822916 0.24306838 23 8 1.6812926e+09
-18.107159 2.1317058 0.95369196 19 9 1.6812926e+09
-13.356207 4.0892572 -0.73264921 31 6 1.6812926e+09
-18.125978 2.1403251 -0.31798282 30 7 1.6812926e+09
nan nan nan 0 4 1.6812926e+09
-12.391084 1.4646125 -1.0864035 21 5 1.6812926e+09
-6.5949368 2.0270543 -1.3318357 21 2 1.6812926e+09
-8.3545198 0.98607039 -1.3284177 21 3 1.6812926e+09
-5.7133932 1.759118 -1.5913469 22 0 1.6812926e+09
-6.9957485 0.81783587 -1.615514 9 1 1.6812926e+09
-13.228065 4.0878906 3.1832983 31 14 1.6812926e+09
-18.027596 2.1033375 4.8471813 24 15 1.6812926e+09
-13.254723 4.0961447 2.1868165 21 12 1.6812926e+09
-17.983055 2.136276 3.5101161 23 13 1.6812926e+09
-13.252924 4.0981288 1.2105932 23 10 1.6812926e+09
-17.967197 2.1629856 2.214565 22 11 1.6812926e+09
-13.273694 4.1096382 0.24193396 23 8 1.6812926e+09
-17.963289 2.1784022 0.94649571 18 9 1.6812926e+09
-13.294163 4.1210642 -0.73002374 30 6 1.6812926e+09
-17.99929 2.1891282 -0.31588855 29 7 1.6812926e+09
-8.9177876 2.7689514 -1.1405967 18 4 1.6812926e+09
-12.435344 1.513858 -1.0907526 18 5 1.6812926e+09
-6.5854778 2.0493326 -1.3313596 21 2 1.6812926e+09
-8.3706369 1.0176001 -1.3315496 21 3 1.6812926e+09
-5.6795545 1.7704186 -1.5835874 22 0 1.6812926e+09
-6.9807568 0.84080201 -1.6127064 9 1 1.6812926e+09
-13.153268 4.1151204 3.1686985 25 14 1.6812926e+09
-17.90984 2.1530218 4.8174553 25 15 1.6812926e+09
-13.172003 4.120997 2.1755002 22 12 1.6812926e+09
-17.873173 2.1865454 3.4900987 22 13 1.6812926e+09
-13.171992 4.1235237 1.2044923 23 10 1.6812926e+09
-17.853643 2.2125936 2.2014825 23 11 1.6812926e+09
-13.192486 4.135006 0.2407123 24 8 1.6812926e+09
-17.824274 2.2247379 0.93956119 19 9 1.6812926e+09
-13.220148 4.1487489 -0.72674185 30 6 1.6812926e+09
-17.879923 2.2380016 -0.31392515 27 7 1.6812926e+09
-8.9009676 2.7978303 -1.139684 17 4 1.6812926e+09
-12.387971 1.5520084 -1.0870559 19 5 1.6812926e+09
-6.5595589 2.0664036 -1.3275503 21 2 1.6812926e+09
-8.3008776 1.0385727 -1.3209788 21 3 1.6812926e+09
-5.6595235 1.7858689 -1.5797076 23 0 1.6812926e+09
-6.9922862 0.86695325 -1.6160755 10 1 1.6812926e+09
-13.090777 4.1432719 3.1569064 24 14 1.6812926e+09
-17.801935 2.1999874 4.7903147 21 15 1.6812926e+09
-13.104119 4.1475096 2.1665249 22 12 1.6812926e+09
-17.746504 2.2308352 3.4667459 21 13 1.6812926e+09
-13.120259 4.1551461 1.2010062 23 10 1.6812926e+09
-17.732973 2.257401 2.1874876 22 11 1.6812926e+09
-13.135815 4.1651268 0.23992693 24 8 1.6812926e+09
-17.735075 2.2733786 0.93524349 19 9 1.6812926e+09
-13.15159 4.1751838 -0.72372252 31 6 1.6812926e+09
-17.760437 2.2860694 -0.31196174 30 7 1.6812926e+09
-8.707201 2.7686462 -1.1159533 18 4 1.6812926e+09
-12.51587 1.6123763 -1.0987984 21 5 1.6812926e+09
-6.4988918 2.0709922 -1.3165985 22 2 1.6812926e+09
-8.2924891 1.0654671 -1.3201957 23 3 1.6812926e+09
-5.6302524 1.7982593 -1.5732414 23 0 1.6812926e+09
-6.981967 0.89043587 -1.614391 16 1 1.6812926e+09
-12.999679 4.1644068 3.138376 25 14 1.6812926e+09
-17.667166 2.2460055 4.7560663 21 15 1.6812926e+09
-13.002554 4.1653409 2.1520865 26 12 1.6812926e+09
-17.62178 2.2776985 3.4438696 22 13 1.6812926e+09
-13.010084 4.1727691 1.1922905 32 10 1.6812926e+09
-17.606876 2.3038638 2.172884 23 11 1.6812926e+09
-13.006227 4.1765461 0.23783265 37 8 1.6812926e+09
-17.610291 2.3230498 0.92909408 19 9 1.6812926e+09
-13.086289 4.2073059 -0.72096574 31 6 1.6812926e+09
-17.645788 2.3339841 -0.31008562 30 7 1.6812926e+09
nan nan nan 0 4 1.6812926e+09
-12.507697 1.6557291 -1.0985811 21 5 1.6812926e+09
-6.5103083 2.0996964 -1.3204077 23 2 1.6812926e+09
-8.254446 1.0899007 -1.3147144 19 3 1.6812926e+09
-5.5963697 1.80898 -1.5654818 23 0 1.6812926e+09
-6.978817 0.91480201 -1.614391 22 1 1.6812926e+09
-12.896276 4.1834488 3.117038 39 14 1.6812926e+09
-17.579792 2.3004241 4.7347412 24 15 1.6812926e+09
-12.937876 4.1969628 2.1438918 39 12 1.6812926e+09
-17.513565 2.3290322 3.424329 24 13 1.6812926e+09
-12.943329 4.2012358 1.187497 41 10 1.6812926e+09
-17.495436 2.3514533 2.1601059 21 11 1.6812926e+09
-12.95829 4.2111006 0.23722182 42 8 1.6812926e+09
-17.498161 2.3704579 0.92359871 19 9 1.6812926e+09
-13.007426 4.2320962 -0.71742129 30 6 1.6812926e+09
-17.526068 2.3804548 -0.30812219 29 7 1.6812926e+09
nan nan nan 0 4 1.6812926e+09
-12.375976 1.6823165 -1.0874908 21 5 1.6812926e+09
-6.493607 2.1193602 -1.3185031 24 2 1.6812926e+09
-8.2016535 1.1120995 -1.3068843 19 3 1.6812926e+09
-5.56707 1.8209894 -1.5590155 23 0 1.6812926e+09
-6.9804096 0.93980396 -1.615514 27 1 1.6812926e+09
-12.838354 4.2117577 3.106369 40 14 1.6812926e+09
-17.442808 2.3413925 4.6998463 24 15 1.6812926e+09
-12.860538 4.2190518 2.1333559 41 12 1.6812926e+09
-17.386591 2.3708804 3.4009759 25 13 1.6812926e+09
-12.869434 4.2269545 1.1820498 35 10 1.6812926e+09
-17.36421 2.3955853 2.1448939 22 11 1.6812926e+09
-12.877767 4.2321892 0.23600015 37 8 1.6812926e+09
-17.373976 2.4123635 0.91744924 19 9 1.6812926e+09
-12.929294 4.2541318 -0.71387684 30 6 1.6812926e+09
-17.398815 2.4250858 -0.30602792 26 7 1.6812926e+09
-9.3705721 3.0881393 -1.2053999 19 4 1.6812926e+09
-12.325926 1.7171782 -1.0835766 21 5 1.6812926e+09
-6.5071421 2.1489463 -1.3227886 23 2 1.6812926e+09
-8.1732635 1.1373323 -1.302969 18 3 1.6812926e+09
-5.5400486 1.8335758 -1.5531958 21 0 1.6812926e+09
-6.965188 0.96128935 -1.6127064 31 1 1.6812926e+09
-12.777334 4.2411919 3.0951385 48 14 1.6812926e+09
-17.355577 2.3914077 4.6785216 19 15 1.6812926e+09
-12.798862 4.248354 2.1255512 51 12 1.6812926e+09
-17.295568 2.4200156 3.3847716 23 13 1.6812926e+09
-12.803349 4.2523313 1.1772562 52 10 1.6812926e+09
-17.259918 2.4426477 2.1330285 22 11 1.6812926e+09
-12.813107 4.2605457 0.23508389 58 8 1.6812926e+09
-17.266582 2.4589419 0.91221571 21 9 1.6812926e+09
-12.779351 4.254272 -0.70639414 23 6 1.6812926e+09
-17.288788 2.4713283 -0.30423903 25 7 1.6812926e+09
-9.3644428 3.1224005 -1.2060084 17 4 1.6812926e+09
-12.289963 1.7581221 -1.0809672 19 5 1.6812926e+09
-6.4833083 2.166199 -1.3194555 21 2 1.6812926e+09
-8.1570206 1.1641181 -1.3010114 21 3 1.6812926e+09
-5.5084276 1.844461 -1.5460831 22 0 1.6812926e+09
-6.9712663 0.98817289 -1.6149526 32 1 1.6812926e+09
-12.626204 4.239994 3.0620084 26 14 1.6812926e+09
-17.227554 2.4351077 4.6462116 21 15 1.6812926e+09
-12.650531 4.2481794 2.1033084 26 12 1.6812926e+09
-17.187414 2.4661093 3.3652313 23 13 1.6812926e+09
-12.638965 4.2492104 1.1635292 27 10 1.6812926e+09
-17.150597 2.4882998 2.1205547 22 11 1.6812926e+09
-12.643424 4.25563 0.23224789 25 8 1.6812926e+09
-17.163576 2.5085154 0.90724373 19 9 1.6812926e+09
-12.600438 4.2460527 -0.69733614 23 6 1.6812926e+09
-17.161339 2.5143011 -0.30214477 24 7 1.6812926e+09
-9.2659502 3.1273263 -1.1947515 18 4 1.6812926e+09
-12.214749 1.7909206 -1.0748785 19 5 1.6812926e+09
-6.4408355 2.1770198 -1.312313 17 2 1.6812926e+09
-8.1529074 1.1925842 -1.3010114 22 3 1.6812926e+09
-5.4836593 1.8574741 -1.54091 23 0 1.6812926e+09
-6.9581304 1.0111061 -1.6127064 35 1 1.6812926e+09
-12.492951 4.2462449 3.0333705 24 14 1.6812926e+09
-17.082277 2.4785042 4.6093779 22 15 1.6812926e+09
-12.506291 4.2507939 2.0818462 25 12 1.6812926e+09
-17.06657 2.5126743 3.343308 23 13 1.6812926e+09
-12.510883 4.2547975 1.1530704 32 10 1.6812926e+09
-17.028456 2.5343702 2.1065595 23 11 1.6812926e+09
-12.507819 4.2586336 0.2300227 63 8 1.6812926e+09
-17.028791 2.5495925 0.90057099 21 9 1.6812926e+09
-12.533555 4.2722831 -0.69444805 27 6 1.6812926e+09
-17.046158 2.5582657 -0.30026865 24 7 1.6812926e+09
-9.226799 3.1500258 -1.1911006 19 4 1.6812926e+09
-12.297092 1.8468304 -1.0827068 22 5 1.6812926e+09
-6.4119153 2.1934574 -1.3080275 21 2 1.6812926e+09
-8.1387138 1.2209984 -1.2994453 19 3 1.6812926e+09
-5.4474459 1.8664196 -1.5325038 22 0 1.6812926e+09
-6.9521489 1.0350313 -1.6121448 32 1 1.6812926e+09
-12.478053 4.2898273 3.0333705 27 14 1.6812926e+09
-16.989912 2.5257108 4.5867605 23 15 1.6812926e+09
-12.500718 4.2976356 2.0834072 29 12 1.6812926e+09
-16.933926 2.5536027 3.3190017 22 13 1.6812926e+09
-12.512439 4.3041153 1.1545957 30 10 1.6812926e+09
-16.884579 2.5732689 2.0898263 30 11 1.6812926e+09
-12.523602 4.3128529 0.23058991 31 8 1.6812926e+09
-16.921074 2.5939131 0.89533734 37 9 1.6812926e+09
-12.568129 4.3331022 -0.69720483 27 6 1.6812926e+09
-16.923473 2.6003203 -0.29826161 24 7 1.6812926e+09
-9.1782217 3.1692488 -1.1862327 22 4 1.6812926e+09
-12.285649 1.888989 -1.0822719 21 5 1.6812926e+09
-6.3856673 2.2094014 -1.3042182 19 2 1.6812926e+09
-8.0782652 1.2408102 -1.2904404 22 3 1.6812926e+09
-5.4203634 1.8783008 -1.5266842 23 0 1.6812926e+09
-6.9436769 1.0585614 -1.6110218 31 1 1.6812926e+09
-12.490613 4.3429623 3.0401089 41 14 1.6812926e+09
-16.835344 2.5628705 4.5473418 30 15 1.6812926e+09
-12.515961 4.3517923 2.08848 41 12 1.6812926e+09
-16.861845 2.6029799 3.3066101 41 13 1.6812926e+09
-12.532619 4.3600454 1.1578641 44 10 1.6812926e+09
-16.905376 2.633822 2.0934772 41 11 1.6812926e+09
-12.546238 4.3697019 0.231288 52 8 1.6812926e+09
-16.926714 2.6552801 0.89612234 42 9 1.6812926e+09
-12.590643 4.3901033 -0.69930524 33 6 1.6812926e+09
-16.813047 2.6434877 -0.29647273 24 7 1.6812926e+09
-9.1460199 3.1939008 -1.1834946 21 4 1.6812926e+09
-12.239614 1.9256837 -1.0787927 23 5 1.6812926e+09
-6.371356 2.2281325 -1.3027897 21 2 1.6812926e+09
-8.0667877 1.2664471 -1.2892659 22 3 1.6812926e+09
-5.3978224 1.8916143 -1.5221578 23 0 1.6812926e+09
-6.9519758 1.0846627 -1.6138295 27 1 1.6812926e+09
-12.450863 4.3754706 3.033932 46 14 1.6812926e+09
-16.862551 2.6242452 4.557035 38 15 1.6812926e+09
-12.471174 4.3826251 2.0834072 48 12 1.6812926e+09
-16.872515 2.6619358 3.3104229 31 13 1.6812926e+09
-12.482086 4.3913631 1.1545957 44 10 1.6812926e+09
-16.915684 2.695936 2.0959113 6 11 1.6812926e+09
-12.49867 4.3996582 0.23067717 44 8 1.6812926e+09
-16.927677 2.7129743 0.89664572 10 9 1.6812926e+09
-12.547761 4.4218698 -0.69772995 33 6 1.6812926e+09
-16.707462 2.6867082 -0.29477113 23 7 1.6812926e+09
-9.1166592 3.2176027 -1.1810607 21 4 1.6812926e+09
-12.235619 1.9666554 -1.0790101 21 5 1.6812926e+09
-6.4051843 2.2650983 -1.3113606 19 2 1.6812926e+09
-8.0501289 1.2926474 -1.2873083 22 3 1.6812926e+09
-5.3729782 1.9039862 -1.5169848 22 0 1.6812926e+09
-6.9579639 1.109238 -1.6160755 24 1 1.6812926e+09
-12.394196 4.4042177 3.0238245 41 14 1.6812926e+09
-16.865213 2.6849859 4.560266 8 15 1.6812926e+09
-12.411593 4.4104152 2.0759928 44 12 1.6812926e+09
-16.85585 2.7196448 3.3089933 9 13 1.6812926e+09
-12.415833 4.4143696 1.1498022 44 10 1.6812926e+09
-16.893927 2.752974 2.0943899 6 11 1.6812926e+09
-12.433786 4.425652 0.22976092 38 8 1.6812926e+09
-16.886074 2.7668073 0.89494485 4 9 1.6812926e+09
-12.478163 4.4463615 -0.69471061 32 6 1.6812926e+09
-16.604254 2.7296295 -0.29311314 23 7 1.6812926e+09
-9.1217299 3.2552469 -1.1831903 18 4 1.6812926e+09
-12.179175 2.0034213 -1.074661 22 5 1.6812926e+09
-6.3856854 2.283308 -1.3089799 18 2 1.6812926e+09
-8.043129 1.320341 -1.2869167 21 3 1.6812926e+09
-5.3412952 1.9137623 -1.5098721 19 0 1.6812926e+09
-6.9514475 1.1343421 -1.615514 17 1 1.6812926e+09
-12.321433 4.4268546 3.0097864 38 14 1.6812926e+09
-16.817598 2.737642 4.5499268 7 15 1.6812926e+09
-12.347322 4.436173 2.0677981 39 12 1.6812926e+09
-16.829306 2.7756751 3.3056571 4 13 1.6812926e+09
-12.348016 4.4412956 1.1450086 42 10 1.6812926e+09
-28.692471 4.7752428 3.5620449 16 11 1.6812926e+09
-12.346931 4.4457803 0.228452 42 8 1.6812926e+09
-28.786131 4.8217816 1.5278174 9 9 1.6812926e+09
-12.417161 4.4759755 -0.6922164 34 6 1.6812926e+09
-16.498482 2.7714493 -0.29141155 21 7 1.6812926e+09
-9.0840664 3.2793851 -1.1798437 21 4 1.6812926e+09
-12.167196 2.0450985 -1.074226 21 5 1.6812926e+09
-6.3961382 2.3122642 -1.3127892 18 2 1.6812926e+09
-8.0287294 1.3467801 -1.2853507 23 3 1.6812926e+09
-5.3164201 1.9258095 -1.5046989 21 0 1.6812926e+09
-6.976284 1.1633899 -1.6222523 17 1 1.6812926e+09
-12.266205 4.4578347 3.0002403 34 14 1.6812926e+09
-16.69548 2.7806468 4.5195551 4 15 1.6812926e+09
-12.282245 4.4636793 2.0596035 37 12 1.6812926e+09
-28.711235 4.8402185 5.6476407 1 13 1.6812926e+09
-12.29733 4.4716001 1.1417402 38 10 1.6812926e+09
-28.739233 4.8861732 3.5699551 19 11 1.6812926e+09
-12.293756 4.4751668 0.22775388 40 8 1.6812926e+09
-28.83803 4.9340129 1.5314808 11 9 1.6812926e+09
-12.342822 4.4979148 -0.6889345 35 6 1.6812926e+09
-16.385229 2.8112977 -0.28957903 22 7 1.6812926e+09
-9.0655699 3.3085208 -1.178931 21 4 1.6812926e+09
-11.902231 2.0434067 -1.0513933 21 5 1.6812926e+09
-6.3926382 2.3362629 -1.3137416 21 2 1.6812926e+09
-7.9801688 1.3673166 -1.2783034 22 3 1.6812926e+09
-5.2847233 1.9352134 -1.4975861 19 0 1.6812926e+09
-6.9577694 1.1852895 -1.6188833 17 1 1.6812926e+09
-12.21248 4.4842057 2.9906943 58 14 1.6812926e+09
-16.612356 2.8234715 4.4995227 3 15 1.6812926e+09
-12.218699 4.4865036 2.0514088 60 12 1.6812926e+09
-28.724051 4.9403887 5.6533599 1 13 1.6812926e+09
-12.244247 4.5007458 1.1382539 62 10 1.6812926e+09
-28.785572 4.9974885 3.5778656 19 11 1.6812926e+09
-12.23897 4.5012369 0.22701216 49 8 1.6812926e+09
-28.860861 5.0364771 1.5335743 1 9 1.6812926e+09
-12.288013 4.5241513 -0.68670279 35 6 1.6812926e+09
-16.284212 2.8525429 -0.2879647 22 7 1.6812926e+09
-9.2710581 3.4184394 -1.2072254 19 4 1.6812926e+09
-12.182435 2.1330137 -1.0768355 21 5 1.6812926e+09
-6.343009 2.3432441 -1.3051705 21 2 1.6812926e+09
-7.9534554 1.3913475 -1.2747797 21 3 1.6812926e+09
-5.268878 1.9502928 -1.4949995 19 0 1.6812926e+09
-6.9441991 1.2066938 -1.6166371 19 1 1.6812926e+09
-12.141943 4.5064573 2.9772179 39 14 1.6812926e+09
-16.469145 2.8583531 4.4633355 3 15 1.6812926e+09
-12.156666 4.5119367 2.0436044 40 12 1.6812926e+09
-28.752556 5.0486813 5.662415 15 13 1.6812926e+09
-12.180228 4.5231113 1.1336783 41 10 1.6812926e+09
-28.843697 5.1113486 3.587297 23 11 1.6812926e+09
-12.169297 4.5238914 0.22600865 42 8 1.6812926e+09
-28.904554 5.1481237 1.5368453 18 9 1.6812926e+09
-12.218333 4.5469832 -0.68368345 38 6 1.6812926e+09
-16.178186 2.8922389 -0.28626308 19 7 1.6812926e+09
-9.2497683 3.4473128 -1.2060084 18 4 1.6812926e+09
-12.199052 2.1820259 -1.0790101 19 5 1.6812926e+09
-6.3232961 2.3610756 -1.3027897 18 2 1.6812926e+09
-7.9291024 1.415641 -1.2716476 23 3 1.6812926e+09
-5.2484689 1.9635915 -1.4911199 21 0 1.6812926e+09
-6.9325333 1.2308646 -1.6149526 22 1 1.6812926e+09
-12.082803 4.5325503 2.9665487 35 14 1.6812926e+09
-28.749247 5.0895495 7.8029213 14 15 1.6812926e+09
-12.089979 4.5352564 2.0350194 38 12 1.6812926e+09
-28.814482 5.1632876 5.6781425 1 13 1.6812926e+09
-12.11694 4.5502071 1.1293205 39 10 1.6812926e+09
-28.857426 5.2177358 3.5912521 21 11 1.6812926e+09
-12.11754 4.5552654 0.22535418 40 8 1.6812926e+09
-28.944445 5.2647438 1.5399854 18 9 1.6812926e+09
-12.159529 4.575902 -0.68132049 34 6 1.6812926e+09
-16.081923 2.9330208 -0.28473601 21 7 1.6812926e+09
-9.2347488 3.4803162 -1.2057041 18 4 1.6812926e+09
-12.247717 2.2348573 -1.0840116 21 5 1.6812926e+09
-6.2874641 2.3727283 -1.2970757 19 2 1.6812926e+09
-7.9727011 1.4521315 -1.279478 24 3 1.6812926e+09
-5.2167382 1.9724972 -1.4840069 19 0 1.6812926e+09
-6.9162073 1.2528929 -1.6121448 23 1 1.6812926e+09
-12.02511 4.5612478 2.9564412 37 14 1.6812926e+09
-28.78981 5.2056193 7.8190761 19 15 1.6812926e+09
-12.031718 4.5637684 2.0279953 39 12 1.6812926e+09
-28.858128 5.2803378 5.6905341 1 13 1.6812926e+09
-12.042775 4.570375 1.1238732 38 10 1.6812926e+09
-15.929641 2.9398003 1.9818211 4 11 1.6812926e+09
-12.045488 4.5762234 0.22430705 41 8 1.6812926e+09
-15.959802 2.9626241 0.84888917 16 9 1.6812926e+09
-12.094481 4.5996757 -0.67856371 35 6 1.6812926e+09
-15.968367 2.9699717 -0.28290349 22 7 1.6812926e+09
-9.556448 3.6397684 -1.2495148 18 4 1.6812926e+09
-12.274122 2.2839622 -1.0870559 19 5 1.6812926e+09
-6.253922 2.385035 -1.2918378 17 2 1.6812926e+09
-7.9360213 1.4741085 -1.2743882 23 3 1.6812926e+09
-5.1985431 1.9863815 -1.4807738 21 0 1.6812926e+09
-6.8710618 1.2695299 -1.6025989 21 1 1.6812926e+09
-11.95305 4.5793037 2.9424031 49 14 1.6812926e+09
-15.941905 2.9392817 4.3282785 7 15 1.6812926e+09
-11.970403 4.5859675 2.020191 54 12 1.6812926e+09
-15.903749 2.9666493 3.1350362 26 13 1.6812926e+09
-11.98257 4.5954347 1.1197335 51 10 1.6812926e+09
-15.897332 2.9912636 1.9790828 40 11 1.6812926e+09
-11.988242 4.600018 0.22352168 57 8 1.6812926e+09
-15.932718 3.012291 0.84797329 37 9 1.6812926e+09
-12.037214 4.6236382 -0.67620075 35 6 1.6812926e+09
-15.876855 3.01035 -0.28146368 22 7 1.6812926e+09
-9.6786432 3.7231328 -1.2671607 17 4 1.6812926e+09
-12.366813 2.3436284 -1.0959715 19 5 1.6812926e+09
-6.2318192 2.401552 -1.2889808 17 2 1.6812926e+09
-7.884728 1.4930991 -1.2669494 23 3 1.6812926e+09
-5.1825676 2.0010335 -1.4781872 19 0 1.6812926e+09
-6.8308983 1.2855737 -1.5941761 21 1 1.6812926e+09
-11.898373 4.6060433 2.932857 43 14 1.6812926e+09
-15.838977 2.9775374 4.3030767 37 15 1.6812926e+09
-11.917479 4.6134562 2.0139472 42 12 1.6812926e+09
-15.845077 3.0129905 3.1255045 30 13 1.6812926e+09
-11.916174 4.6153488 1.1149398 41 10 1.6812926e+09
-15.845364 3.0388043 1.9739108 31 11 1.6812926e+09
-11.930164 4.625566 0.22273633 41 8 1.6812926e+09
-15.848559 3.0537386 0.84404814 31 9 1.6812926e+09
-11.972129 4.6466517 -0.67344397 35 6 1.6812926e+09
-15.772984 3.0477583 -0.27980569 23 7 1.6812926e+09
-9.2308006 3.5878155 -1.2099636 16 4 1.6812926e+09
-12.382595 2.3936572 -1.0981461 19 5 1.6812926e+09
-6.2211118 2.422399 -1.2885047 18 2 1.6812926e+09
-7.8940153 1.5234118 -1.2692984 21 3 1.6812926e+09
-5.1553054 2.0112062 -1.4723676 17 0 1.6812926e+09
-6.7974277 1.3051088 -1.5874376 19 1 1.6812926e+09
-11.83685 4.6297951 2.9216266 41 14 1.6812926e+09
-15.781048 3.0237322 4.2901525 27 15 1.6812926e+09
-11.841513 4.6316328 2.0038013 40 12 1.6812926e+09
-15.75495 3.0528979 3.109777 30 13 1.6812926e+09
-11.864394 4.6453686 1.1116716 38 10 1.6812926e+09
-15.74211 3.0760398 1.9623498 30 11 1.6812926e+09
-11.861933 4.6491871 0.22177644 40 8 1.6812926e+09
-15.734363 3.0916183 0.83855277 27 9 1.6812926e+09
-11.910863 4.6731696 -0.67094976 37 6 1.6812926e+09
-15.691121 3.0888171 -0.2785404 22 7 1.6812926e+09
-9.1968031 3.6134534 -1.2072254 17 4 1.6812926e+09
-12.37172 2.4363856 -1.0979286 18 5 1.6812926e+09
-6.2194686 2.4467974 -1.2899332 19 2 1.6812926e+09
-7.9249954 1.558082 -1.2751713 22 3 1.6812926e+09
-5.1415148 2.0265307 -1.4704278 16 0 1.6812926e+09
-6.7641377 1.3232354 -1.5806993 18 1 1.6812926e+09
-11.779025 4.6570201 2.9115191 41 14 1.6812926e+09
-15.698748 3.067678 4.2707663 30 15 1.6812926e+09
-11.808384 4.6686449 2.0010698 42 12 1.6812926e+09
-15.669014 3.0958974 3.0950022 32 13 1.6812926e+09
-11.818003 4.6748419 1.1088389 43 10 1.6812926e+09
-15.633924 3.111624 1.9501801 25 11 1.6812926e+09
-11.824717 4.6822796 0.22138375 41 8 1.6812926e+09
-15.65248 3.1323364 0.83475846 24 9 1.6812926e+09
-11.855024 4.6990733 -0.66871804 35 6 1.6812926e+09
-15.594458 3.1263978 -0.2770133 22 7 1.6812926e+09
-9.2095032 3.6556091 -1.210572 14 4 1.6812926e+09
-11.855188 2.3778732 -1.0526981 17 5 1.6812926e+09
-6.2131701 2.4693995 -1.2904093 18 2 1.6812926e+09
-7.9122448 1.5842855 -1.2739968 24 3 1.6812926e+09
-5.1276798 2.0417833 -1.4684879 14 0 1.6812926e+09
-6.7140775 1.3378242 -1.5700303 21 1 1.6812926e+09
-11.718268 4.6779842 2.9002883 38 14 1.6812926e+09
-15.626901 3.107492 4.2539654 31 15 1.6812926e+09
-11.733212 4.6839657 1.990924 39 12 1.6812926e+09
-15.588883 3.1338344 3.0811813 31 13 1.6812926e+09
-11.748423 4.6948023 1.1038275 39 10 1.6812926e+09
-15.54514 3.1504285 1.9404444 23 11 1.6812926e+09
-11.753425 4.6991878 0.22033662 40 8 1.6812926e+09
-15.553931 3.1663213 0.8300482 26 9 1.6812926e+09
-11.795341 4.7207294 -0.66622382 34 6 1.6812926e+09
-15.502626 3.1643405 -0.27557349 23 7 1.6812926e+09
-9.8560314 3.9502578 -1.2975847 15 4 1.6812926e+09
-11.883844 2.4246273 -1.0559598 17 5 1.6812926e+09
-6.20679 2.4919875 -1.2908854 17 2 1.6812926e+09
-7.9018273 1.6109113 -1.2732137 23 3 1.6812926e+09
-5.1339617 2.0650811 -1.4723676 13 0 1.6812926e+09
-6.6785617 1.353811 -1.5627306 15 1 1.6812926e+09
-11.661202 4.702455 2.8901808 54 14 1.6812926e+09
-15.526006 3.1438344 4.2294092 30 15 1.6812926e+09
-11.69847 4.7175026 1.9878021 63 12 1.6812926e+09
-15.496097 3.1715236 3.0649769 29 13 1.6812926e+09
-11.721243 4.7290754 1.102738 60 10 1.6812926e+09
-15.448985 3.187149 1.929796 24 11 1.6812926e+09
-11.70682 4.7280126 0.21976942 67 8 1.6812926e+09
-15.481664 3.2079492 0.82677722 23 9 1.6812926e+09
-11.734817 4.7440891 -0.66372955 35 6 1.6812926e+09
-15.416172 3.2000043 -0.27422091 22 7 1.6812926e+09
-9.4925957 3.84304 -1.2513402 15 4 1.6812926e+09
-12.316712 2.5575857 -1.0953192 14 5 1.6812926e+09
-6.2048759 2.5164068 -1.2923141 19 2 1.6812926e+09
-7.9058275 1.6404849 -1.2747797 22 3 1.6812926e+09
-5.129323 2.083004 -1.4730142 11 0 1.6812926e+09
-6.6356158 1.3692644 -1.5537461 17 1 1.6812926e+09
-11.608622 4.7284236 2.8811965 41 14 1.6812926e+09
-15.427416 3.1799977 4.2055001 27 15 1.6812926e+09
-11.617902 4.7322183 1.9768759 41 12 1.6812926e+09
-15.400836 3.2081041 3.0482962 25 13 1.6812926e+09
-11.630865 4.7398739 1.0957656 41 10 1.6812926e+09
-15.362478 3.2252734 1.9203645 27 11 1.6812926e+09
-11.646275 4.7509041 0.21894044 43 8 1.6812926e+09
-15.387309 3.244482 0.82232869 23 9 1.6812926e+09
-11.681207 4.769917 -0.66162914 35 6 1.6812926e+09
-15.324197 3.2367742 -0.2727811 23 7 1.6812926e+09
-9.263238 3.7878311 -1.2227416 16 4 1.6812926e+09
-12.502662 2.6416817 -1.1127155 17 5 1.6812926e+09
-6.1574497 2.5222256 -1.2842191 19 2 1.6812926e+09
-7.9121342 1.6706152 -1.2767375 23 3 1.6812926e+09
-5.1264887 2.1027303 -1.4743075 14 0 1.6812926e+09
-6.5926447 1.3844346 -1.5447617 17 1 1.6812926e+09
-11.534896 4.7477503 2.8671584 38 14 1.6812926e+09
-15.335292 3.2196732 4.1835289 26 15 1.6812926e+09
-11.554812 4.7559643 1.9690714 40 12 1.6812926e+09
-15.300142 3.2457123 3.0306623 27 13 1.6812926e+09
-11.583479 4.7701392 1.0929331 41 10 1.6812926e+09
-15.258336 3.2618725 1.9088033 26 11 1.6812926e+09
-11.587187 4.7764049 0.21815507 41 8 1.6812926e+09
-15.29476 3.2835879 0.81801099 24 9 1.6812926e+09
-11.6198 4.7945995 -0.65913492 35 6 1.6812926e+09
-15.234024 3.2761242 -0.27138489 23 7 1.6812926e+09
-9.2469988 3.8208094 -1.2224374 17 4 1.6812926e+09
-12.580557 2.7063136 -1.120544 13 5 1.6812926e+09
-6.1277571 2.536324 -1.2799337 18 2 1.6812926e+09
-7.7273002 1.6613024 -1.2477651 19 3 1.6812926e+09
-5.1209784 2.122431 -1.4749541 14 0 1.6812926e+09
-6.5660825 1.4040189 -1.5397079 19 1 1.6812926e+09
-11.49576 4.7786317 2.8615432 41 14 1.6812926e+09
-15.238931 3.2550483 4.1602654 25 15 1.6812926e+09
-11.51534 4.7867875 1.9651693 42 12 1.6812926e+09
-15.214348 3.2830744 3.0158877 24 13 1.6812926e+09
-11.523068 4.792367 1.088793 38 10 1.6812926e+09
-15.198359 3.3045843 1.9027185 25 11 1.6812926e+09
-11.528909 4.7995248 0.21736971 40 8 1.6812926e+09
-15.200269 3.3188739 0.81356245 26 9 1.6812926e+09
-11.570731 4.8216825 -0.65729707 37 6 1.6812926e+09
-15.151675 3.3138139 -0.27011961 23 7 1.6812926e+09
-9.3938961 3.9199834 -1.2437341 16 4 1.6812926e+09
-12.775419 2.7948496 -1.1388102 16 5 1.6812926e+09
-6.0667915 2.5359154 -1.2689819 19 2 1.6812926e+09
-7.813128 1.7082537 -1.2626427 23 3 1.6812926e+09
-5.1202207 2.1430931 -1.4768941 15 0 1.6812926e+09
-6.5206676 1.4181571 -1.530162 21 1 1.6812926e+09
-11.434087 4.7998657 2.8503125 39 14 1.6812926e+09
-15.154311 3.2923501 4.140233 30 15 1.6812926e+09
-11.425704 4.7963581 1.9526819 41 12 1.6812926e+09
