# .PCD v0.7 - Point Cloud Data file format
VERSION 0.7
FIELDS x y z intensity ring timestamp
SIZE 4 4 4 4 2 8
TYPE F F F F U F
COUNT 1 1 1 1 1 1
WIDTH 939
HEIGHT 1
VIEWPOINT 0 0 0 1 0 0 0
POINTS 939
DATA ascii
-6.3421059 6.8629508 2.4911189 50 15 1.6812926e+09
-4.7505994 7.5318327 1.4016854 67 12 1.6812926e+09
-6.3334808 6.8823853 1.8096279 52 13 1.6812926e+09
-4.7512498 7.5387087 0.77655768 44 10 1.6812926e+09
-6.3188725 6.888144 1.1418136 57 11 1.6812926e+09
-4.7526364 7.5467615 0.15506463 52 8 1.6812926e+09
-6.3113031 6.8943458 0.48803276 47 9 1.6812926e+09
-4.733562 7.5222836 -0.46550336 41 6 1.6812926e+09
-6.3064442 6.8938618 -0.16248189 54 7 1.6812926e+09
-4.7486043 7.5549622 -1.0897887 42 4 1.6812926e+09
-6.3340206 6.9239955 -0.81632489 41 5 1.6812926e+09
-3.2461648 5.1695638 -1.1775581 18 2 1.6812926e+09
-6.2133312 6.7851052 -1.4533116 16 3 1.6812926e+09
-2.6203661 4.1787972 -1.3113577 17 0 1.6812926e+09
-3.6769638 4.0097561 -1.246029 18 1 1.6812926e+09
-4.7139225 7.5347161 2.0405903 52 14 1.6812926e+09
-6.3103757 6.879034 2.488534 51 15 1.6812926e+09
-4.7137961 7.5345373 1.3989538 59 12 1.6812926e+09
-6.2949643 6.8910637 1.8058152 48 13 1.6812926e+09
-4.7235861 7.5531359 0.77633983 60 10 1.6812926e+09
-6.2830868 6.8973246 1.139684 55 11 1.6812926e+09
-4.7209678 7.5548253 0.15489011 62 8 1.6812926e+09
-6.2787976 6.9071021 0.4873786 63 9 1.6812926e+09
-4.7046313 7.5345244 -0.46524081 41 6 1.6812926e+09
-6.2772975 6.9102859 -0.162351 65 7 1.6812926e+09
-4.7261424 7.5778084 -1.0907013 41 4 1.6812926e+09
-6.3064618 6.9423771 -0.81588995 42 5 1.6812926e+09
-3.195668 5.1287799 -1.1656539 18 2 1.6812926e+09
-6.1945949 6.8122301 -1.454486 18 3 1.6812926e+09
-2.6134138 4.2002239 -1.3152375 17 0 1.6812926e+09
-3.6727953 4.0333657 -1.2493982 18 1 1.6812926e+09
-4.6889105 7.5503063 2.0405903 54 14 1.6812926e+09
-6.2728815 6.8838639 2.4827182 48 15 1.6812926e+09
-4.6926923 7.5564218 1.4001245 60 12 1.6812926e+09
-6.2770286 6.9173503 1.807245 54 13 1.6812926e+09
-4.6919413 7.5611129 0.77546823 62 10 1.6812926e+09
-6.2523098 6.9118562 1.1384671 58 11 1.6812926e+09
-4.6840339 7.5513186 0.15449741 76 8 1.6812926e+09
-6.2491627 6.9204774 0.48685521 54 9 1.6812926e+09
-4.6756759 7.5437174 -0.464847 42 6 1.6812926e+09
-6.2497869 6.9284444 -0.16226374 56 7 1.6812926e+09
-4.6957636 7.5849996 -1.0894843 41 4 1.6812926e+09
-6.2700496 6.9484673 -0.81415027 42 5 1.6812926e+09
-3.1919358 5.1628699 -1.1708918 19 2 1.6812926e+09
-6.1691227 6.8319802 -1.4540946 19 3 1.6812926e+09
-2.5987365 4.209321 -1.3152375 17 0 1.6812926e+09
-3.6839366 4.0726023 -1.2578212 17 1 1.6812926e+09
-4.6523061 7.5500336 2.036098 58 14 1.6812926e+09
-6.2552991 6.912878 2.4853029 51 15 1.6812926e+09
-4.6598115 7.5622439 1.3981733 57 12 1.6812926e+09
-6.2347631 6.9191732 1.8020024 51 13 1.6812926e+09
-4.6590066 7.5639052 0.77416086 54 10 1.6812926e+09
-6.2181907 6.9225688 1.1366416 55 11 1.6812926e+09
-4.6563368 7.5654945 0.15445378 60 8 1.6812926e+09
-6.2232995 6.9403906 0.48672441 52 9 1.6812926e+09
-4.6466994 7.5557394 -0.46458444 41 6 1.6812926e+09
-6.2222266 6.946496 -0.16217647 55 7 1.6812926e+09
-4.6653628 7.5950007 -1.0885717 41 4 1.6812926e+09
-6.2412148 6.9676919 -0.81371534 41 5 1.6812926e+09
-3.1982656 5.2137351 -1.1799389 18 2 1.6812926e+09
-6.1419382 6.8497977 -1.4533116 21 3 1.6812926e+09
-2.57142 4.1977692 -1.3087713 16 0 1.6812926e+09
-3.649435 4.064342 -1.2510828 18 1 1.6812926e+09
-4.6233821 7.5620699 2.0349748 56 14 1.6812926e+09
-6.211751 6.9131255 2.4775486 46 15 1.6812926e+09
-4.6282353 7.570035 1.3966125 58 12 1.6812926e+09
-6.2072978 6.9372382 1.8010494 50 13 1.6812926e+09
-4.6286564 7.5766797 0.77372509 63 10 1.6812926e+09
-6.1956406 6.9460821 1.1369458 54 11 1.6812926e+09
-4.622067 7.5718408 0.15423563 62 8 1.6812926e+09
-6.1911769 6.9556971 0.48620102 48 9 1.6812926e+09
-4.6189752 7.5727196 -0.46458444 42 6 1.6812926e+09
-6.196279 6.9663076 -0.16213284 44 7 1.6812926e+09
-4.6362047 7.60993 -1.0882674 41 4 1.6812926e+09
-6.2036066 6.974555 -0.81197578 41 5 1.6812926e+09
-3.1621912 5.1955118 -1.1732726 18 2 1.6812926e+09
-6.1196337 6.8730392 -1.4537032 21 3 1.6812926e+09
-2.5504837 4.1963987 -1.3055381 17 0 1.6812926e+09
-3.6319804 4.0734224 -1.2499598 19 1 1.6812926e+09
-4.5867958 7.5643816 2.0310442 58 14 1.6812926e+09
-6.1863713 6.9358463 2.4775486 50 15 1.6812926e+09
-4.6004591 7.5869474 1.3966125 60 12 1.6812926e+09
-6.173677 6.9507718 1.7986662 46 13 1.6812926e+09
-4.5983095 7.5864005 0.77307147 64 10 1.6812926e+09
-6.1586189 6.9557443 1.1348162 49 11 1.6812926e+09
-4.5981965 7.5922055 0.15432289 59 8 1.6812926e+09
-6.1618967 6.9716568 0.48580852 58 9 1.6812926e+09
-4.5912218 7.5866613 -0.46445319 41 6 1.6812926e+09
-6.1570234 6.9710393 -0.16174017 57 7 1.6812926e+09
-4.6044793 7.6175704 -1.0870504 41 4 1.6812926e+09
-6.1709752 6.9868383 -0.81088853 42 5 1.6812926e+09
-3.1329861 5.1902552 -1.1694633 17 2 1.6812926e+09
-6.0894933 6.8898745 -1.4525285 21 3 1.6812926e+09
-2.534574 4.203208 -1.3048916 16 0 1.6812926e+09
-3.5951087 4.0605593 -1.2420983 16 1 1.6812926e+09
-4.5616183 7.5824347 2.0316057 57 14 1.6812926e+09
-6.155714 6.9501691 2.4749637 44 15 1.6812926e+09
-4.5701294 7.5966115 1.3954418 59 12 1.6812926e+09
-6.1412549 6.9630814 1.7962834 52 13 1.6812926e+09
-4.5743666 7.6066747 0.77350724 58 10 1.6812926e+09
-6.1293836 6.971612 1.1339035 58 11 1.6812926e+09
-4.5665188 7.5996389 0.15414837 62 8 1.6812926e+09
-6.1276369 6.9818702 0.48502347 48 9 1.6812926e+09
-4.5634265 7.6004996 -0.46432188 42 6 1.6812926e+09
-6.1178112 6.9755831 -0.16134749 54 7 1.6812926e+09
-4.5778613 7.6335969 -1.0870504 41 4 1.6812926e+09
-6.1366897 6.9971061 -0.80958372 42 5 1.6812926e+09
-3.1324949 5.2306418 -1.1761296 18 2 1.6812926e+09
-6.0670357 6.9129434 -1.4529201 22 3 1.6812926e+09
-2.5186477 4.2099566 -1.3042449 16 0 1.6812926e+09
-3.5793028 4.0712557 -1.2415369 16 1 1.6812926e+09
-4.5376201 7.6024952 2.0327289 58 14 1.6812926e+09
-6.1250319 6.9643631 2.472379 55 15 1.6812926e+09
-4.5448503 7.6146388 1.3958321 59 12 1.6812926e+09
-6.1039696 6.9697123 1.7924707 49 13 1.6812926e+09
-4.5465107 7.6204562 0.77328932 59 10 1.6812926e+09
-6.0996985 6.984426 1.1326865 50 11 1.6812926e+09
-4.5412426 7.6176801 0.154192 62 8 1.6812926e+09
-6.0966625 6.9956908 0.48450008 51 9 1.6812926e+09
-4.5355911 7.6142383 -0.46419063 40 6 1.6812926e+09
-6.0917816 6.9950109 -0.16130385 59 7 1.6812926e+09
-4.5486503 7.6452646 -1.086442 41 4 1.6812926e+09
-6.1056819 7.0109754 -0.80871391 42 5 1.6812926e+09
-3.1201453 5.2494416 -1.1780342 17 2 1.6812926e+09
-6.0408311 6.9293041 -1.452137 19 3 1.6812926e+09
-2.5125592 4.2332621 -1.3087713 16 0 1.6812926e+09
-3.5506368 4.0672207 -1.2364832 17 1 1.6812926e+09
-4.5123839 7.6175013 2.0327289 49 14 1.6812926e+09
-6.093955 6.9755473 2.4691479 47 15 1.6812926e+09
-4.5095086 7.6126695 1.3927102 43 12 1.6812926e+09
-6.077601 6.9862151 1.7915175 52 13 1.6812926e+09
-4.516078 7.6298504 0.77263564 42 10 1.6812926e+09
-6.0638947 6.992558 1.1305568 55 11 1.6812926e+09
-4.5159569 7.6326971 0.154192 43 8 1.6812926e+09
-6.0570817 6.9970026 0.4831917 65 9 1.6812926e+09
-4.5065055 7.6227884 -0.46379676 42 6 1.6812926e+09
-6.0575113 7.0048933 -0.16104208 64 7 1.6812926e+09
-4.5182276 7.6517582 -1.085225 40 4 1.6812926e+09
-6.0758777 7.0236526 -0.80784404 42 5 1.6812926e+09
-3.1117706 5.277216 -1.1818435 18 2 1.6812926e+09
-6.0230746 6.9578128 -1.4537032 24 3 1.6812926e+09
-2.4793987 4.2107859 -1.2990719 17 0 1.6812926e+09
-3.5387275 4.0808115 -1.2370446 17 1 1.6812926e+09
-4.4894676 7.6395073 2.0344133 56 14 1.6812926e+09
-6.0600677 6.9858356 2.4652705 51 15 1.6812926e+09
-4.48666 7.6347513 1.3938808 62 12 1.6812926e+09
-6.0451517 6.998105 1.7891345 52 13 1.6812926e+09
-4.4907513 7.6447845 0.77263564 71 10 1.6812926e+09
-6.0264878 6.9986458 1.1281228 48 11 1.6812926e+09
-4.491816 7.6527262 0.15427928 76 8 1.6812926e+09
-6.0293646 7.0143189 0.48293003 54 9 1.6812926e+09
-4.4786072 7.6363192 -0.46366552 39 6 1.6812926e+09
-6.0216179 7.0127263 -0.16073667 57 7 1.6812926e+09
-4.4939981 7.6717663 -1.0858334 41 4 1.6812926e+09
-6.0484705 7.0439868 -0.80762666 42 5 1.6812926e+09
-3.1081936 5.3134713 -1.1875575 18 2 1.6812926e+09
-5.9939194 6.9731793 -1.4525285 23 3 1.6812926e+09
-2.4573812 4.2069011 -1.295192 17 0 1.6812926e+09
-3.538064 4.1103592 -1.2420983 17 1 1.6812926e+09
-4.4627738 7.6551318 2.0344133 42 14 1.6812926e+09
-6.019875 6.988657 2.4588087 54 15 1.6812926e+09
-4.4574957 7.6460991 1.3931005 42 12 1.6812926e+09
-6.0031009 6.9986825 1.7838919 50 13 1.6812926e+09
-4.4589424 7.6547351 0.77198201 52 10 1.6812926e+09
-6.0068626 7.0252962 1.1290357 54 11 1.6812926e+09
-4.4599662 7.6626568 0.15414837 72 8 1.6812926e+09
-5.9906435 7.0211816 0.48188329 70 9 1.6812926e+09
-4.4530978 7.6569991 -0.46392807 42 6 1.6812926e+09
-5.9971018 7.0337029 -0.16073667 89 7 1.6812926e+09
-4.45962 7.6774569 -1.0843123 40 4 1.6812926e+09
-6.0141444 7.0536895 -0.80632192 42 5 1.6812926e+09
-3.1007078 5.3433957 -1.191843 17 2 1.6812926e+09
-5.9695415 6.9940591 -1.4525285 25 3 1.6812926e+09
-2.4499416 4.2279925 -1.2990719 17 0 1.6812926e+09
-3.5205262 4.1189833 -1.2409754 17 1 1.6812926e+09
-4.423717 7.6524534 2.0293596 57 14 1.6812926e+09
-5.9879379 7.003334 2.4562237 54 15 1.6812926e+09
-4.4269714 7.6581097 1.39232 59 12 1.6812926e+09
-5.9837756 7.0281076 1.7857982 52 13 1.6812926e+09
-4.4309492 7.6680961 0.7717641 60 10 1.6812926e+09
-5.9646263 7.0254216 1.125689 57 11 1.6812926e+09
-4.4306922 7.6738477 0.15406109 75 8 1.6812926e+09
-5.9596405 7.0344353 0.48135996 54 9 1.6812926e+09
-4.4250956 7.6703343 -0.46379676 42 6 1.6812926e+09
-5.9692812 7.0507793 -0.16064939 56 7 1.6812926e+09
-4.4513707 7.7252316 -1.0888759 26 4 1.6812926e+09
-5.9846559 7.0689402 -0.80566955 42 5 1.6812926e+09
-3.0759184 5.3435502 -1.1894622 18 2 1.6812926e+09
-5.9514804 7.0223856 -1.4540946 23 3 1.6812926e+09
-2.4327629 4.2323303 -1.2977786 16 0 1.6812926e+09
-3.5092821 4.1349587 -1.2420983 17 1 1.6812926e+09
-4.3922577 7.6565146 2.026552 59 14 1.6812926e+09
-5.9599891 7.017633 2.4542851 54 15 1.6812926e+09
-4.3978662 7.6663208 1.3911493 62 12 1.6812926e+09
-5.9429946 7.0273085 1.7805558 50 13 1.6812926e+09
-4.3954892 7.6683898 0.77023888 62 10 1.6812926e+09
-5.9384656 7.044302 1.1253847 54 11 1.6812926e+09
-4.3965249 7.6733141 0.15375568 70 8 1.6812926e+09
-5.9427133 7.0617957 0.48188329 56 9 1.6812926e+09
-4.3921962 7.6719651 -0.46300915 42 6 1.6812926e+09
-5.9333677 7.0581861 -0.16034397 48 7 1.6812926e+09
-3.0380292 5.3119807 -0.74599707 17 4 1.6812926e+09
-5.9483504 7.0735044 -0.80392987 42 5 1.6812926e+09
-3.0414348 5.3265438 -1.1832721 17 2 1.6812926e+09
-5.9126148 7.0261211 -1.4505709 24 3 1.6812926e+09
-2.4191701 4.2428951 -1.2984253 15 0 1.6812926e+09
-3.4908361 4.1409898 -1.2404138 17 1 1.6812926e+09
-4.3606868 7.6633291 2.0243058 56 14 1.6812926e+09
-5.9370146 7.0402393 2.4549313 54 15 1.6812926e+09
-4.3625331 7.6665998 1.3884177 60 12 1.6812926e+09
-5.9200072 7.0498891 1.7810323 55 13 1.6812926e+09
-4.3688054 7.680759 0.77002102 60 10 1.6812926e+09
-5.9090595 7.0592833 1.124472 49 11 1.6812926e+09
-4.3684788 7.6864419 0.15371206 65 8 1.6812926e+09
-5.910018 7.0729222 0.4812291 44 9 1.6812926e+09
-4.3653893 7.6872497 -0.46300915 43 6 1.6812926e+09
-5.9131351 7.0816584 -0.16043124 47 7 1.6812926e+09
-3.0145733 5.3139186 -0.74478018 19 4 1.6812926e+09
-5.9236226 7.0942254 -0.80392987 42 5 1.6812926e+09
-3.0264497 5.3435354 -1.1847005 18 2 1.6812926e+09
-5.8880529 7.0467176 -1.4505709 29 3 1.6812926e+09
-2.4015212 4.2445869 -1.2964853 16 0 1.6812926e+09
-3.4669683 4.1419497 -1.2370446 18 1 1.6812926e+09
-4.3279257 7.6678958 2.0214982 60 14 1.6812926e+09
-5.9093003 7.0572195 2.4536388 54 15 1.6812926e+09
-4.3333182 7.6774797 1.3876373 59 12 1.6812926e+09
-5.8890724 7.0629749 1.7791259 44 13 1.6812926e+09
-4.3358507 7.6851153 0.76893157 60 10 1.6812926e+09
-5.8780341 7.0722361 1.123255 50 11 1.6812926e+09
-4.3391671 7.697288 0.1536248 71 8 1.6812926e+09
-5.8805079 7.0877476 0.4808366 60 9 1.6812926e+09
-4.3336296 7.6937389 -0.46248403 42 6 1.6812926e+09
-5.8740129 7.0849447 -0.16003856 57 7 1.6812926e+09
-3.0045197 5.3395495 -0.74690986 8 4 1.6812926e+09
-5.8892803 7.1033607 -0.80262518 43 5 1.6812926e+09
-3.0570376 5.4418087 -1.2042233 18 2 1.6812926e+09
-5.8539534 7.0558305 -1.4482218 29 3 1.6812926e+09
-2.3985012 4.2740083 -1.3029516 16 0 1.6812926e+09
-3.4634004 4.1671319 -1.2409754 17 1 1.6812926e+09
-4.3045487 7.6922112 2.0237446 59 14 1.6812926e+09
-5.8818498 7.0769744 2.4529927 44 15 1.6812926e+09
-4.3027396 7.6890016 1.3868569 59 12 1.6812926e+09
-5.8568835 7.0769529 1.7772197 59 13 1.6812926e+09
-4.3076549 7.7009554 0.76893157 56 10 1.6812926e+09
-5.8375087 7.0735807 1.1202127 51 11 1.6812926e+09
-4.310926 7.71314 0.1536248 59 8 1.6812926e+09
-5.8417869 7.0938411 0.47978985 49 9 1.6812926e+09
-4.3090515 7.7161107 -0.46287784 44 6 1.6812926e+09
-5.8432369 7.1006384 -0.15990765 56 7 1.6812926e+09
-4.3177009 7.7411141 -1.0824869 40 4 1.6812926e+09
-5.8537049 7.1133647 -0.80132043 42 5 1.6812926e+09
-2.9783256 5.3452353 -1.180415 24 2 1.6812926e+09
-5.8182926 7.0628872 -1.4454812 26 3 1.6812926e+09
-2.3687396 4.257442 -1.295192 16 0 1.6812926e+09
-3.4574149 4.1910653 -1.2443445 18 1 1.6812926e+09
-4.2754703 7.7000532 2.0220597 57 14 1.6812926e+09
-5.8460422 7.0815468 2.447823 58 15 1.6812926e+09
-4.2784162 7.7053857 1.3872471 60 12 1.6812926e+09
-5.8177891 7.0773854 1.7724537 43 13 1.6812926e+09
-4.2795386 7.7137666 0.76871365 60 10 1.6812926e+09
-5.8159289 7.0977511 1.1208211 55 11 1.6812926e+09
-4.2877488 7.7317662 0.15371206 62 8 1.6812926e+09
-5.8103223 7.1035161 0.47913566 59 9 1.6812926e+09
-4.2810216 7.7259893 -0.46261528 43 6 1.6812926e+09
-5.8120856 7.1132522 -0.15973315 75 7 1.6812926e+09
-4.3004141 7.7705884 -1.0846165 34 4 1.6812926e+09
-5.8269296 7.1288815 -0.8008855 43 5 1.6812926e+09
-2.999989 5.4286442 -1.1966047 18 2 1.6812926e+09
-5.7826529 7.0697799 -1.4427406 25 3 1.6812926e+09
-2.3422043 4.2445369 -1.2887259 17 0 1.6812926e+09
-3.4434979 4.202507 -1.2443445 19 1 1.6812926e+09
-4.2509155 7.7191982 2.0231829 60 14 1.6812926e+09
-5.7983084 7.0739055 2.4381301 51 15 1.6812926e+09
-4.2503033 7.718111 1.3868569 64 12 1.6812926e+09
-5.7946024 7.0995512 1.7729303 52 13 1.6812926e+09
-4.2563367 7.7322798 0.76914942 59 10 1.6812926e+09
-5.7770147 7.1006932 1.118083 59 11 1.6812926e+09
-4.2607341 7.746686 0.15371206 47 8 1.6812926e+09
-5.774467 7.1101942 0.47821978 90 9 1.6812926e+09
-4.2564306 7.7452626 -0.46287784 37 6 1.6812926e+09
-5.7730389 7.116034 -0.15934047 49 7 1.6812926e+09
-2.9675369 5.4055276 -0.75177765 21 4 1.6812926e+09
-5.7897711 7.1366568 -0.79936337 42 5 1.6812926e+09
-2.9208941 5.3293047 -1.1723202 19 2 1.6812926e+09
-5.7735157 7.1090822 -1.4466559 26 3 1.6812926e+09
-2.3517041 4.2971821 -1.302305 16 0 1.6812926e+09
-3.4526911 4.2453184 -1.2533289 17 1 1.6812926e+09
-4.2227778 7.7318521 2.0226214 42 14 1.6812926e+09
-5.7766318 7.097847 2.4394226 54 15 1.6812926e+09
-4.2233362 7.7329006 1.3868569 42 12 1.6812926e+09
-5.7558694 7.1025815 1.768641 55 13 1.6812926e+09
-4.2279677 7.7478285 0.76914942 51 10 1.6812926e+09
-5.7443914 7.1111679 1.1165618 54 11 1.6812926e+09
-4.234704 7.7666397 0.15379933 64 8 1.6812926e+09
-5.7420969 7.123539 0.47769642 54 9 1.6812926e+09
-2.9266298 5.3709264 -0.31978741 7 6 1.6812926e+09
-5.73875 7.1244659 -0.15907867 64 7 1.6812926e+09
-2.9524469 5.4250879 -0.75299466 8 4 1.6812926e+09
-5.7616982 7.152946 -0.79892844 42 5 1.6812926e+09
-2.8706455 5.2812395 -1.1594638 19 2 1.6812926e+09
-5.7036905 7.0734735 -1.4353018 24 3 1.6812926e+09
-2.3493531 4.3287172 -1.309418 16 0 1.6812926e+09
-3.4439795 4.2649207 -1.2555749 17 1 1.6812926e+09
-4.1932507 7.7451348 2.0220597 65 14 1.6812926e+09
-5.7399478 7.1058264 2.4348991 49 15 1.6812926e+09
-4.1961393 7.7504988 1.3872471 68 12 1.6812926e+09
-5.7221026 7.1140723 1.7662579 50 13 1.6812926e+09
-4.2020817 7.7647295 0.76936728 57 10 1.6812926e+09
-5.7151828 7.1283035 1.1159533 58 11 1.6812926e+09
-4.2040019 7.7747769 0.15366842 41 8 1.6812926e+09
-5.7187576 7.1454892 0.47782728 80 9 1.6812926e+09
-2.904305 5.3745198 -0.3193936 10 6 1.6812926e+09
-5.7091599 7.1386013 -0.15894778 82 7 1.6812926e+09
-4.1255636 7.6455793 -1.0608858 1 4 1.6812926e+09
-5.7304688 7.1652384 -0.79805869 42 5 1.6812926e+09
-2.8442881 5.2787604 -1.1566068 19 2 1.6812926e+09
-5.719409 7.1463604 -1.4458728 30 3 1.6812926e+09
-2.3330848 4.3347645 -1.3087713 15 0 1.6812926e+09
-3.3985615 4.2389293 -1.2443445 16 1 1.6812926e+09
-4.1638856 7.7554312 2.0209367 47 14 1.6812926e+09
-5.7030134 7.1107535 2.4297295 54 15 1.6812926e+09
-4.159718 7.7476912 1.3841252 55 12 1.6812926e+09
-5.6880407 7.1225009 1.7633984 52 13 1.6812926e+09
-4.1714206 7.7727666 0.76871365 60 10 1.6812926e+09
-5.6871729 7.1443286 1.1153448 54 11 1.6812926e+09
-4.1721144 7.7805924 0.15349391 74 8 1.6812926e+09
-5.6860094 7.1556373 0.47717303 54 9 1.6812926e+09
-4.1808023 7.8033438 -0.46366552 35 6 1.6812926e+09
-5.6842065 7.1584873 -0.15894778 56 7 1.6812926e+09
-4.1749201 7.8021617 -1.0806614 41 4 1.6812926e+09
-5.6945744 7.1715498 -0.79653651 42 5 1.6812926e+09
-2.8293123 5.2951517 -1.1580353 18 2 1.6812926e+09
-5.6959662 7.1682134 -1.4462643 31 3 1.6812926e+09
-2.3133941 4.3343587 -1.3061846 15 0 1.6812926e+09
-3.3974137 4.2679086 -1.2493982 16 1 1.6812926e+09
-4.1390777 7.7742195 2.0220597 58 14 1.6812926e+09
-5.6826735 7.1362834 2.4316678 55 15 1.6812926e+09
-4.1384497 7.7730651 1.3860765 64 12 1.6812926e+09
-5.6600924 7.1384683 1.7624452 54 13 1.6812926e+09
-4.139585 7.7784853 0.76784205 65 10 1.6812926e+09
-5.6634502 7.1631489 1.1153448 57 11 1.6812926e+09
-4.1402373 7.7862792 0.15331939 81 8 1.6812926e+09
-5.6563549 7.1695638 0.47678053 54 9 1.6812926e+09
-4.137146 7.7870216 -0.46182767 44 6 1.6812926e+09
-5.6560864 7.1743603 -0.15886052 48 7 1.6812926e+09
-4.1430097 7.8079185 -1.0794444 41 4 1.6812926e+09
-5.6710491 7.1933389 -0.79675394 42 5 1.6812926e+09
-2.8163323 5.3131795 -1.1599399 19 2 1.6812926e+09
-5.6645107 7.1773753 -1.4443067 31 3 1.6812926e+09
-2.2858324 4.318924 -1.2990719 17 0 1.6812926e+09
-3.3628368 4.2549124 -1.2420983 16 1 1.6812926e+09
-4.1075888 7.7771311 2.0192521 59 14 1.6812926e+09
-5.6529818 7.1475148 2.4290833 56 15 1.6812926e+09
-4.1091914 7.7801933 1.3849057 60 12 1.6812926e+09
-5.6363897 7.1571984 1.7624452 55 13 1.6812926e+09
-4.1100841 7.7884817 0.76740628 60 10 1.6812926e+09
-5.6322784 7.1750698 1.1141279 48 11 1.6812926e+09
-4.1097307 7.7911215 0.15314485 62 8 1.6812926e+09
-5.6279259 7.1823888 0.47638804 43 9 1.6812926e+09
-4.1159539 7.8095322 -0.46235272 44 6 1.6812926e+09
-5.6310086 7.1940598 -0.15886052 51 7 1.6812926e+09
-4.117095 7.8216143 -1.0794444 41 4 1.6812926e+09
-5.6379452 7.2003436 -0.79544914 41 5 1.6812926e+09
-2.8046162 5.3360147 -1.162797 17 2 1.6812926e+09
-5.6333265 7.189333 -1.4427406 32 3 1.6812926e+09
-2.2774713 4.3397093 -1.3029516 18 0 1.6812926e+09
-3.3502142 4.2679553 -1.2426599 16 1 1.6812926e+09
-4.0770268 7.7849474 2.0175676 58 14 1.6812926e+09
-5.6250119 7.1634059 2.4277909 52 15 1.6812926e+09
-4.0785732 7.7879276 1.3837351 64 12 1.6812926e+09
-5.6083465 7.1729641 1.761492 43 13 1.6812926e+09
-4.0796156 7.7932429 0.76653481 64 10 1.6812926e+09
-5.6071987 7.1946859 1.1141279 65 11 1.6812926e+09
-4.0744033 7.7899137 0.15283944 81 8 1.6812926e+09
-5.5982194 7.1960812 0.47599554 51 9 1.6812926e+09
-4.0771108 7.801724 -0.46103999 52 6 1.6812926e+09
-5.5935845 7.1978889 -0.15851146 57 7 1.6812926e+09
-4.0886192 7.8337369 -1.0791402 41 4 1.6812926e+09
-5.6084585 7.2170286 -0.79501426 41 5 1.6812926e+09
-2.7859728 5.3457723 -1.162797 18 2 1.6812926e+09
-5.6006117 7.1992121 -1.440783 33 3 1.6812926e+09
-2.2556252 4.3347769 -1.2990719 16 0 1.6812926e+09
-3.327055 4.2706037 -1.2398523 16 1 1.6812926e+09
-4.0487051 7.7969689 2.0170059 59 14 1.6812926e+09
-5.5895724 7.1696711 2.4232674 44 15 1.6812926e+09
-4.0525002 7.8043079 1.3841252 64 12 1.6812926e+09
-5.5802622 7.1886215 1.7605387 57 13 1.6812926e+09
-4.056757 7.8191972 0.7676242 68 10 1.6812926e+09
-5.5729337 7.2024441 1.1123023 42 11 1.6812926e+09
-4.0446749 7.8025756 0.15279582 71 8 1.6812926e+09
-5.5626459 7.2046986 0.47521046 56 9 1.6812926e+09
-4.0473409 7.8143983 -0.46090874 44 6 1.6812926e+09
-5.5638418 7.2114353 -0.15838058 57 7 1.6812926e+09
-4.0598793 7.8486705 -1.0791402 42 4 1.6812926e+09
-5.5771432 7.2286782 -0.79414451 42 5 1.6812926e+09
-2.7808077 5.3816323 -1.1685109 17 2 1.6812926e+09
-5.5754476 7.2187181 -1.440783 33 3 1.6812926e+09
-2.2415867 4.3447709 -1.2997185 16 0 1.6812926e+09
-3.3106351 4.2802658 -1.2392907 15 1 1.6812926e+09
-4.0212154 7.8139224 2.0175676 57 14 1.6812926e+09
-5.5676937 7.1958375 2.4252059 57 15 1.6812926e+09
-4.0170922 7.805934 1.381784 58 12 1.6812926e+09
-5.5433865 7.1954231 1.7572026 52 13 1.6812926e+09
-4.0248828 7.8244505 0.76675266 62 10 1.6812926e+09
-5.5356569 7.2061176 1.1098685 56 11 1.6812926e+09
-4.0174141 7.8166466 0.15279582 83 8 1.6812926e+09
-5.5359426 7.2220912 0.4750796 58 9 1.6812926e+09
-4.0234585 7.8351412 -0.46130255 62 6 1.6812926e+09
-5.5310302 7.2208948 -0.15816243 72 7 1.6812926e+09
-4.0301943 7.8583779 -1.0785317 42 4 1.6812926e+09
-5.5473294 7.2421718 -0.79349208 42 5 1.6812926e+09
-2.7720709 5.4109674 -1.1727964 18 2 1.6812926e+09
-5.5457053 7.2322612 -1.4396085 32 3 1.6812926e+09
-2.2253079 4.3504181 -1.2990719 17 0 1.6812926e+09
-3.2956743 4.2917957 -1.2392907 17 1 1.6812926e+09
-3.9930668 7.8228745 2.0164447 59 14 1.6812926e+09
-5.5305471 7.197032 2.4193902 55 15 1.6812926e+09
-3.9911847 7.8192124 1.381784 62 12 1.6812926e+09
-5.5180025 7.2118177 1.7567261 57 13 1.6812926e+09
-3.9918909 7.8273582 0.76566321 66 10 1.6812926e+09
-5.5089631 7.223424 1.1095642 59 11 1.6812926e+09
-3.9926059 7.8321533 0.15283944 84 8 1.6812926e+09
-5.50137 7.2265096 0.47416374 78 9 1.6812926e+09
-3.9963217 7.8462162 -0.4611713 63 6 1.6812926e+09
-5.4936781 7.2242455 -0.15781337 52 7 1.6812926e+09
-4.0007386 7.8650627 -1.077619 41 4 1.6812926e+09
-5.5217743 7.2585464 -0.79327464 42 5 1.6812926e+09
-2.7698276 5.4534388 -1.1799389 17 2 1.6812926e+09
-5.5144396 7.2437191 -1.4380424 32 3 1.6812926e+09
-2.2101088 4.3581595 -1.2990719 16 0 1.6812926e+09
-3.2814243 4.302701 -1.2392907 16 1 1.6812926e+09
-3.9635367 7.832417 2.0153215 59 14 1.6812926e+09
-5.4995284 7.2086167 2.4168053 56 15 1.6812926e+09
-3.9616377 7.8286896 1.3810035 58 12 1.6812926e+09
-5.4823966 7.217361 1.75339 57 13 1.6812926e+09
-3.9681599 7.8449979 0.76609898 46 10 1.6812926e+09
-5.4732232 7.2287669 1.1074345 51 11 1.6812926e+09
-3.9720044 7.8594284 0.15310124 43 8 1.6812926e+09
-5.4715929 7.239696 0.47377121 58 9 1.6812926e+09
-3.9722834 7.8668041 -0.46156511 38 6 1.6812926e+09
-5.4744558 7.2513547 -0.15798789 64 7 1.6812926e+09
-3.9732602 7.8789802 -1.077619 41 4 1.6812926e+09
-5.4921298 7.2747622 -0.79283971 42 5 1.6812926e+09
-2.7573936 5.4762282 -1.1827959 17 2 1.6812926e+09
-5.4891205 7.2629237 -1.4380424 35 3 1.6812926e+09
-2.1927147 4.3615317 -1.2977786 17 0 1.6812926e+09
-3.2656317 4.3146992 -1.2392907 16 1 1.6812926e+09
-3.9416316 7.8570924 2.0181291 41 14 1.6812926e+09
-5.4714136 7.2239218 2.415513 54 15 1.6812926e+09
-3.9486752 7.8711667 1.3860765 50 12 1.6812926e+09
-5.452734 7.230577 1.75196 55 13 1.6812926e+09
-3.9538817 7.8884363 0.76893157 63 10 1.6812926e+09
-5.4494491 7.2498116 1.1077389 56 11 1.6812926e+09
-3.952122 7.8918157 0.15345027 74 8 1.6812926e+09
-5.4450216 7.2597017 0.47377121 78 9 1.6812926e+09
-3.9467731 7.8880081 -0.46195891 43 6 1.6812926e+09
-5.4386096 7.256424 -0.15768248 68 7 1.6812926e+09
-3.9432473 7.8912706 -1.0773147 41 4 1.6812926e+09
-5.4562407 7.2799439 -0.79131752 42 5 1.6812926e+09
-2.7393568 5.4880157 -1.1832721 17 2 1.6812926e+09
-5.4548373 7.2701941 -1.4356933 35 3 1.6812926e+09
-2.1774766 4.3691592 -1.2977786 15 0 1.6812926e+09
-3.2520161 4.3280182 -1.2398523 16 1 1.6812926e+09
-3.9171433 7.8802137 2.0203753 55 14 1.6812926e+09
-5.4405437 7.2381372 2.4135742 54 15 1.6812926e+09
-3.9208977 7.8877983 1.3864666 62 12 1.6812926e+09
-5.4247246 7.2485504 1.7514836 55 13 1.6812926e+09
-3.9329679 7.9155722 0.77023888 62 10 1.6812926e+09
-5.4137139 7.2548738 1.1056092 51 11 1.6812926e+09
-3.9212172 7.8988452 0.15331939 66 8 1.6812926e+09
-5.4121871 7.2686558 0.47311702 57 9 1.6812926e+09
-3.928086 7.9196324 -0.46300915 38 6 1.6812926e+09
-5.4147396 7.277369 -0.15772611 58 7 1.6812926e+09
-3.9134753 7.9005389 -1.0767063 41 4 1.6812926e+09
-5.4233575 7.288959 -0.79023027 42 5 1.6812926e+09
-2.7310607 5.5195441 -1.1880337 18 2 1.6812926e+09
-5.430903 7.2911711 -1.4360849 38 3 1.6812926e+09
-2.16435 4.3810649 -1.2990719 16 0 1.6812926e+09
-3.2383468 4.3412952 -1.2404138 17 1 1.6812926e+09
-3.9103708 7.9324946 2.0304828 42 14 1.6812926e+09
-5.4078379 7.2445321 2.4096973 55 15 1.6812926e+09
-3.9198215 7.9517035 1.3954418 44 12 1.6812926e+09
-5.3962626 7.260592 1.7500536 51 13 1.6812926e+09
-3.9174135 7.9538321 0.77263564 47 10 1.6812926e+09
-5.3898344 7.2757187 1.1059133 57 11 1.6812926e+09
-3.9270067 7.9768467 0.15458469 37 8 1.6812926e+09
-5.3880539 7.2865639 0.47311702 56 9 1.6812926e+09
-3.9095125 7.9482975 -0.46392807 30 6 1.6812926e+09
-5.3803873 7.2841668 -0.15746433 52 7 1.6812926e+09
-3.8883476 7.9157 -1.0770105 41 4 1.6812926e+09
-5.3991561 7.3069034 -0.79023027 42 5 1.6812926e+09
-2.6772144 5.4585228 -1.1727964 21 2 1.6812926e+09
-5.3995423 7.302145 -1.4345187 37 3 1.6812926e+09
-2.1479826 4.3864236 -1.2984253 15 0 1.6812926e+09
-3.2239327 4.3520103 -1.2404138 16 1 1.6812926e+09
-3.8869338 7.9548526 2.0327289 18 14 1.6812926e+09
-5.3839555 7.2653041 2.4103434 54 15 1.6812926e+09
-3.894208 7.9697747 1.3962222 21 12 1.6812926e+09
-5.3694272 7.2774105 1.7495772 55 13 1.6812926e+09
-3.8932011 7.9712558 0.77307147 26 10 1.6812926e+09
-5.3555784 7.2824993 1.1040879 52 11 1.6812926e+09
-3.90133 7.9949999 0.15467195 11 8 1.6812926e+09
-5.3507595 7.2892323 0.47207028 44 9 1.6812926e+09
-3.8861189 7.9708738 -0.46445319 24 6 1.6812926e+09
-5.3549285 7.3029032 -0.15746433 51 7 1.6812926e+09
-3.8596079 7.9269943 -1.0767063 41 4 1.6812926e+09
-5.3634968 7.3145962 -0.78892553 42 5 1.6812926e+09
-2.6570718 5.4656272 -1.1723202 19 2 1.6812926e+09
-5.3725586 7.3189592 -1.4341273 37 3 1.6812926e+09
-2.1316042 4.3917217 -1.2977786 15 0 1.6812926e+09
-3.2108493 4.3677201 -1.2415369 16 1 1.6812926e+09
-3.8909853 8.0341539 2.0495746 3 14 1.6812926e+09
-5.3471045 7.2684956 2.4051735 51 15 1.6812926e+09
-3.8749721 8.0011015 1.3993441 11 12 1.6812926e+09
-5.3338337 7.2822552 1.746241 43 13 1.6812926e+09
-3.8748021 8.0078917 0.77525032 10 10 1.6812926e+09
-5.3286614 7.2991462 1.1037836 51 11 1.6812926e+09
-5.6000686 11.585518 0.22400163 17 8 1.6812926e+09
-5.324007 7.3087955 0.47207028 59 9 1.6812926e+09
-3.8590481 7.9895587 -0.46471569 24 6 1.6812926e+09
-5.317627 7.3053894 -0.15711528 57 7 1.6812926e+09
-3.8262174 7.9321465 -1.0754893 41 4 1.6812926e+09
-5.3349977 7.3292484 -0.78849059 42 5 1.6812926e+09
-2.6379771 5.4748688 -1.1723202 19 2 1.6812926e+09
-5.341157 7.3296885 -1.4325612 38 3 1.6812926e+09
-2.1183536 4.4034886 -1.2990719 16 0 1.6812926e+09
-3.1927083 4.3749685 -1.2404138 18 1 1.6812926e+09
-3.8351777 7.9934459 2.0355365 1 14 1.6812926e+09
-5.3190036 7.2860956 2.4045274 44 15 1.6812926e+09
-3.8253334 7.9729452 1.3919297 1 12 1.6812926e+09
-5.3071074 7.3017559 1.746241 62 13 1.6812926e+09
-3.8446724 8.0168762 0.77481449 8 10 1.6812926e+09
-5.2944069 7.3056507 1.1019582 59 11 1.6812926e+09
-5.5336814 11.550889 0.22295448 42 8 1.6812926e+09
-5.2911425 7.3172235 0.47141609 58 9 1.6812926e+09
-3.8300588 8.0007286 -0.46458444 24 6 1.6812926e+09
-5.2891636 7.3198562 -0.157028 56 7 1.6812926e+09
-3.7995756 7.9476929 -1.0757936 42 4 1.6812926e+09
-5.302083 7.3377371 -0.78740335 41 5 1.6812926e+09
-2.6410463 5.5305586 -1.1823198 19 2 1.6812926e+09
-5.3155384 7.3482881 -1.4325612 38 3 1.6812926e+09
-2.0977769 4.3999548 -1.2958387 16 0 1.6812926e+09
-3.1831408 4.3939724 -1.2426599 16 1 1.6812926e+09
-3.8693225 8.1337233 2.068105 1 14 1.6812926e+09
-5.2905579 7.2978311 2.4025888 58 15 1.6812926e+09
-14.25298 29.972166 5.2391505 22 12 1.6812926e+09
-5.27424 7.3073788 1.7433814 44 13 1.6812926e+09
-3.8220086 8.0414953 0.775904 9 10 1.6812926e+09
-5.261622 7.3140192 1.100437 57 11 1.6812926e+09
-5.4921308 11.562401 0.22282359 44 8 1.6812926e+09
-5.2639341 7.3306746 0.47115442 60 9 1.6812926e+09
-3.8013659 8.0088749 -0.46432188 25 6 1.6812926e+09
-5.2592072 7.3321824 -0.15689713 76 7 1.6812926e+09
-3.7742615 7.962492 -1.0760978 42 4 1.6812926e+09
-5.2777214 7.3552785 -0.78740335 42 5 1.6812926e+09
-2.6857276 5.6750808 -1.2113658 18 2 1.6812926e+09
-5.2826509 7.3567743 -1.4306036 38 3 1.6812926e+09
-2.0762203 4.3941479 -1.2919589 16 0 1.6812926e+09
-3.1685522 4.4045043 -1.2426599 16 1 1.6812926e+09
-3.8180623 8.0987005 2.0557516 1 14 1.6812926e+09
-5.2608156 7.3103747 2.40065 52 15 1.6812926e+09
-14.141956 30.008337 5.2368093 1 12 1.6812926e+09
-5.2458396 7.3217564 1.7424281 57 13 1.6812926e+09
-3.7931983 8.0496197 0.77546823 8 10 1.6812926e+09
-5.2288446 7.3222485 1.0989158 59 11 1.6812926e+09
-5.4496078 11.57698 0.22273633 49 8 1.6812926e+09
-5.2267127 7.332747 0.47010773 88 9 1.6812926e+09
-3.7776356 8.0311327 -0.464847 25 6 1.6812926e+09
-5.2263269 7.3403192 -0.15667897 51 7 1.6812926e+09
-3.7401168 7.9621406 -1.0742723 41 4 1.6812926e+09
-5.2391629 7.3583488 -0.78566378 42 5 1.6812926e+09
-2.6815238 5.7177567 -1.2185084 18 2 1.6812926e+09
-5.2483335 7.3631091 -1.4282545 39 3 1.6812926e+09
-2.0608692 4.4013691 -1.2919589 17 0 1.6812926e+09
-3.1651411 4.4339218 -1.2477137 18 1 1.6812926e+09
-3.7907999 8.1141853 2.056313 2 14 1.6812926e+09
-5.2324567 7.3247662 2.399358 55 15 1.6812926e+09
-14.030854 30.044094 5.234468 1 12 1.6812926e+09
-5.2088633 7.3240304 1.7386155 54 13 1.6812926e+09
-3.7594581 8.0544405 0.77459669 8 10 1.6812926e+09
-5.198945 7.3343844 1.0980031 54 11 1.6812926e+09
-5.413476 11.61047 0.22299811 60 8 1.6812926e+09
-5.1940303 7.3437042 0.46958435 57 9 1.6812926e+09
-3.7460666 8.0403986 -0.46458444 25 6 1.6812926e+09
-5.1934543 7.3483148 -0.15646082 60 7 1.6812926e+09
-3.7140479 7.9825449 -1.0751851 42 4 1.6812926e+09
-5.2076917 7.3684592 -0.78479391 41 5 1.6812926e+09
-2.6677508 5.740437 -1.2213653 18 2 1.6812926e+09
-5.222599 7.3813844 -1.4282545 38 3 1.6812926e+09
-2.053618 4.4260635 -1.297132 16 0 1.6812926e+09
-3.1299026 4.4171329 -1.2398523 17 1 1.6812926e+09
-3.7446728 8.0926466 2.0473285 2 14 1.6812926e+09
-5.1888032 7.3202596 2.3916032 56 15 1.6812926e+09
-13.921679 30.097555 5.234858 1 12 1.6812926e+09
-5.1763201 7.3350544 1.736709 57 13 1.6812926e+09
-3.7302747 8.0652542 0.77437884 9 10 1.6812926e+09
-5.1663136 7.3452749 1.0967861 59 11 1.6812926e+09
-5.3739629 11.631563 0.22304174 62 8 1.6812926e+09
-5.1669292 7.3597479 0.46945354 66 9 1.6812926e+09
-3.7200699 8.0579586 -0.464847 26 6 1.6812926e+09
-5.1663351 7.3643532 -0.15641718 73 7 1.6812926e+09
-3.686161 7.995461 -1.0751851 42 4 1.6812926e+09
-5.1805072 7.3845544 -0.78457642 41 5 1.6812926e+09
-2.6272078 5.7078118 -1.2123182 18 2 1.6812926e+09
-5.1912503 7.3944168 -1.42708 38 3 1.6812926e+09
-2.0462191 4.4507613 -1.302305 16 0 1.6812926e+09
-3.1270938 4.4459538 -1.2449061 17 1 1.6812926e+09
-3.7224908 8.1189575 2.0506978 2 14 1.6812926e+09
-5.1562653 7.328455 2.3883724 55 15 1.6812926e+09
-13.808302 30.12801 5.2317362 25 12 1.6812926e+09
-5.1506844 7.3530779 1.736709 55 13 1.6812926e+09
-3.7041731 8.0827541 0.77481449 8 10 1.6812926e+09
-5.1392212 7.3612299 1.0964819 59 11 1.6812926e+09
-5.3322887 11.647979 0.22299811 71 8 1.6812926e+09
-5.1383505 7.3736439 0.46919185 52 9 1.6812926e+09
-3.6919196 8.0708952 -0.464847 24 6 1.6812926e+09
-5.1448865 7.3884945 -0.15654808 56 7 1.6812926e+09
-3.6582291 8.0082798 -1.0751851 41 4 1.6812926e+09
-5.1461535 7.3903341 -0.78327173 41 5 1.6812926e+09
-2.6357651 5.7794795 -1.2256508 18 2 1.6812926e+09
-5.1639943 7.4104667 -1.4266884 39 3 1.6812926e+09
-2.0326715 4.4622726 -1.3035983 15 0 1.6812926e+09
-3.0920079 4.428894 -1.2370446 18 1 1.6812926e+09
-3.6915166 8.122385 2.0484517 3 14 1.6812926e+09
-5.1319351 7.3455129 2.3883724 57 15 1.6812926e+09
-13.711382 30.180378 5.2329068 26 12 1.6812926e+09
-5.1178589 7.3580351 1.7338496 51 13 1.6812926e+09
-3.6773493 8.0949926 0.77481449 8 10 1.6812926e+09
-5.1176114 7.382308 1.0970904 59 11 1.6812926e+09
-5.2915668 11.661044 0.22291085 83 8 1.6812926e+09
-5.116714 7.3947473 0.46945354 54 9 1.6812926e+09
-3.6651351 8.0830936 -0.464847 24 6 1.6812926e+09
-5.1105299 7.3940749 -0.1562863 55 7 1.6812926e+09
-3.6265376 8.0090637 -1.0736639 41 4 1.6812926e+09
-5.1203251 7.4082527 -0.78327173 41 5 1.6812926e+09
-2.6357818 5.8306832 -1.2346979 18 2 1.6812926e+09
-5.1323628 7.4174018 -1.4247308 39 3 1.6812926e+09
-2.0260162 4.4891543 -1.309418 15 0 1.6812926e+09
-3.0806973 4.4456639 -1.2387292 17 1 1.6812926e+09
-3.666141 8.1418848 2.0501361 3 14 1.6812926e+09
-5.1048861 7.3613997 2.3877263 55 15 1.6812926e+09
-13.599869 30.214544 5.2305655 24 12 1.6812926e+09
-5.0865617 7.3677793 1.7319431 55 13 1.6812926e+09
-3.6486764 8.1106892 0.77503246 8 10 1.6812926e+09
-5.0918112 7.4001265 1.0970904 51 11 1.6812926e+09
-5.2528892 11.689481 0.22308536 95 8 1.6812926e+09
-5.0867486 7.4093366 0.46919185 44 9 1.6812926e+09
-3.6354847 8.0964727 -0.464847 24 6 1.6812926e+09
-5.0903492 7.4201102 -0.15646082 49 7 1.6812926e+09
-3.5991879 8.0268307 -1.0742723 42 4 1.6812926e+09
-5.0930243 7.424027 -0.78305423 41 5 1.6812926e+09
-2.6515036 5.9204936 -1.2518399 17 2 1.6812926e+09
-5.105041 7.4332376 -1.4243394 39 3 1.6812926e+09
-2.010334 4.4961991 -1.309418 15 0 1.6812926e+09
-3.0762184 4.4724379 -1.2432214 15 1 1.6812926e+09
-3.6362748 8.1552677 2.0501361 3 14 1.6812926e+09
-5.0792403 7.3820481 2.3883724 56 15 1.6812926e+09
-13.489036 30.264189 5.2305655 25 12 1.6812926e+09
-5.0650749 7.3944693 1.7338496 44 13 1.6812926e+09
-3.6183159 8.1188259 0.77459669 8 10 1.6812926e+09
-5.0702548 7.4269352 1.0983074 49 11 1.6812926e+09
-5.2090044 11.700894 0.22295448 99 8 1.6812926e+09
-5.0580397 7.4229221 0.46893016 63 9 1.6812926e+09
-3.6061859 8.1068316 -0.46471569 22 6 1.6812926e+09
-5.0531545 7.4213109 -0.15611176 55 7 1.6812926e+09
-3.5691333 8.0348101 -1.0736639 41 4 1.6812926e+09
-5.0600653 7.4314709 -0.78196698 41 5 1.6812926e+09
-2.5273721 5.6990614 -1.2027949 21 2 1.6812926e+09
-5.0708046 7.4416995 -1.4223816 38 3 1.6812926e+09
-1.994627 4.5031891 -1.309418 16 0 1.6812926e+09
-3.0619631 4.4851599 -1.243783 16 1 1.6812926e+09
-3.6068017 8.1656828 2.0495746 3 14 1.6812926e+09
-5.0507159 7.3957462 2.38708 42 15 1.6812926e+09
-13.38032 30.304312 5.2293949 27 12 1.6812926e+09
-5.0281854 7.3958731 1.7300367 63 13 1.6812926e+09
-3.5899537 8.1314058 0.77459669 8 10 1.6812926e+09
-5.0359406 7.4322672 1.0964819 58 11 1.6812926e+09
-5.1661124 11.714432 0.22286721 97 8 1.6812926e+09
-5.0209007 7.4239936 0.46788341 42 9 1.6812926e+09
-3.5798783 8.1239405 -0.46497825 22 6 1.6812926e+09
-5.0188141 7.4264822 -0.15584998 57 7 1.6812926e+09
-3.541065 8.0472183 -1.0736639 41 4 1.6812926e+09
-5.0299072 7.4429011 -0.78131467 41 5 1.6812926e+09
-2.4995716 5.6898708 -1.1989856 21 2 1.6812926e+09
-5.0420294 7.455265 -1.4215986 39 3 1.6812926e+09
-1.9788959 4.5101242 -1.309418 15 0 1.6812926e+09
-3.0531294 4.5058985 -1.2465906 17 1 1.6812926e+09
-3.5773001 8.1759911 2.0490131 3 14 1.6812926e+09
-5.0262256 7.4153309 2.3877263 65 15 1.6812926e+09
-13.274458 30.350834 5.2293949 27 12 1.6812926e+09
-5.0037122 7.4154124 1.7305132 42 13 1.6812926e+09
-3.5595531 8.1393232 0.77416086 7 10 1.6812926e+09
-4.997406 7.4283442 1.0934395 59 11 1.6812926e+09
-5.1241899 11.730103 0.22282359 96 8 1.6812926e+09
-4.9935627 7.4394026 0.46775261 56 9 1.6812926e+09
-3.5554922 8.1455402 -0.46550336 21 6 1.6812926e+09
-4.9956474 7.4481058 -0.15593724 63 7 1.6812926e+09
-3.5129535 8.0595303 -1.0736639 40 4 1.6812926e+09
-4.998343 7.4521422 -0.7804448 41 5 1.6812926e+09
-2.4816685 5.7003784 -1.1994617 18 2 1.6812926e+09
-5.0159011 7.4698949 -1.4212072 40 3 1.6812926e+09
-1.9592932 4.5081434 -1.3068314 14 0 1.6812926e+09
-3.0292153 4.5044065 -1.2432214 17 1 1.6812926e+09
-19.133177 44.146351 11.082303 22 14 1.6812926e+09
-4.9921613 7.4179373 2.3832028 42 15 1.6812926e+09
-13.16981 30.385626 5.2278342 27 12 1.6812926e+09
-4.9749932 7.4258513 1.7290835 56 13 1.6812926e+09
-3.5330989 8.15627 0.77459669 7 10 1.6812926e+09
-4.9728246 7.4478064 1.0937438 60 11 1.6812926e+09
-5.0872483 11.751619 0.22291085 100 8 1.6812926e+09
-4.9591665 7.4413834 0.46683672 65 9 1.6812926e+09
-3.5264795 8.1527023 -0.46524081 21 6 1.6812926e+09
-4.9571424 7.4467788 -0.15554455 68 7 1.6812926e+09
-3.4842405 8.0665789 -1.0730554 41 4 1.6812926e+09
-4.9777474 7.4748921 -0.78109717 42 5 1.6812926e+09
-2.4685533 5.7247849 -1.2027949 18 2 1.6812926e+09
-4.9856849 7.4811964 -1.4200326 40 3 1.6812926e+09
-1.9340047 4.4927707 -1.3003651 17 0 1.6812926e+09
-3.029161 4.5367002 -1.2493982 16 1 1.6812926e+09
-18.968393 44.18824 11.076126 26 14 1.6812926e+09
-4.9595256 7.4252801 2.3799715 55 15 1.6812926e+09
-13.063664 30.43141 5.2278342 27 12 1.6812926e+09
-4.9422431 7.4329572 1.7267007 56 13 1.6812926e+09
-4.721632 11.001416 1.0443437 16 10 1.6812926e+09
-4.9358225 7.4485774 1.0913098 59 11 1.6812926e+09
-5.0540738 11.787684 0.2232599 104 8 1.6812926e+09
-4.9248915 7.4461589 0.46605167 58 9 1.6812926e+09
-3.4970174 8.1626682 -0.46510956 19 6 1.6812926e+09
-4.9256024 7.4556971 -0.15537004 58 7 1.6812926e+09
-3.4541106 8.0741291 -1.0724469 41 4 1.6812926e+09
-4.9475689 7.4889326 -0.78066224 42 5 1.6812926e+09
-2.4504817 5.7378807 -1.2037472 18 2 1.6812926e+09
-4.9568143 7.4944367 -1.4192497 40 3 1.6812926e+09
-1.9154712 4.4928288 -1.2984253 19 0 1.6812926e+09
-2.9950006 4.5213847 -1.2420983 17 1 1.6812926e+09
-18.816889 44.26091 11.07781 29 14 1.6812926e+09
-4.9282346 7.4344978 2.377387 55 15 1.6812926e+09
-12.95929 30.481369 5.2286143 25 12 1.6812926e+09
-4.9135609 7.4460678 1.7257473 50 13 1.6812926e+09
-4.6744637 11.002602 1.0428185 19 10 1.6812926e+09
-4.9016051 7.4533253 1.0894843 62 11 1.6812926e+09
-5.0196228 11.82684 0.22365257 104 8 1.6812926e+09
-4.8934546 7.4579 0.46565917 60 9 1.6812926e+09
-3.4670763 8.1754313 -0.46510956 19 6 1.6812926e+09
-4.8995476 7.4728456 -0.15537004 65 7 1.6812926e+09
-3.4244943 8.0867348 -1.0724469 41 4 1.6812926e+09
-4.9159312 7.4978285 -0.77979249 42 5 1.6812926e+09
-2.4227946 5.7283144 -1.1999378 19 2 1.6812926e+09
-4.9251995 7.5034394 -1.4176835 40 3 1.6812926e+09
-1.9054078 4.5128384 -1.302305 17 0 1.6812926e+09
-2.9858999 4.5419841 -1.2449061 16 1 1.6812926e+09
-18.654537 44.329582 11.07781 29 14 1.6812926e+09
-4.8969679 7.4464588 2.3754482 55 15 1.6812926e+09
-12.846525 30.526386 5.2282243 25 12 1.6812926e+09
-4.8822012 7.4578695 1.7243177 55 13 1.6812926e+09
-3.442667 8.1813421 0.77350724 7 10 1.6812926e+09
-4.8742003 7.4683127 1.0891801 59 11 1.6812926e+09
-3.4407449 8.184782 0.15436654 31 8 1.6812926e+09
-4.8646655 7.4707527 0.46539748 60 9 1.6812926e+09
-3.4375508 8.1851797 -0.46497825 21 6 1.6812926e+09
-4.8720679 7.4878082 -0.15532641 60 7 1.6812926e+09
-3.3972044 8.1009274 -1.0727512 41 4 1.6812926e+09
-4.8870101 7.5107689 -0.77935755 42 5 1.6812926e+09
-2.3866768 5.6982493 -1.191843 18 2 1.6812926e+09
-4.8976288 7.5185184 -1.417292 40 3 1.6812926e+09
-1.8877819 4.5150051 -1.3010117 17 0 1.6812926e+09
-2.9900203 4.5829668 -1.2533289 18 1 1.6812926e+09
-3.4261286 8.2140932 2.0433979 3 14 1.6812926e+09
-4.8696051 7.4586134 2.3741558 58 15 1.6812926e+09
-12.746176 30.571098 5.2286143 24 12 1.6812926e+09
-4.8547659 7.4699039 1.7233645 56 13 1.6812926e+09
-3.4150453 8.1956091 0.77372509 7 10 1.6812926e+09
-4.8440518 7.4790354 1.0882674 59 11 1.6812926e+09
-3.4135842 8.1961479 0.15436654 41 8 1.6812926e+09
-4.8480029 7.4994192 0.46618253 58 9 1.6812926e+09
-3.4075131 8.1896191 -0.46458444 18 6 1.6812926e+09
-4.8472581 7.5068684 -0.15537004 62 7 1.6812926e+09
-3.3684189 8.1075649 -1.0721426 41 4 1.6812926e+09
-4.8539619 7.5143857 -0.77805281 42 5 1.6812926e+09
-2.3686507 5.7110806 -1.1927954 17 2 1.6812926e+09
-4.8619637 7.5210576 -1.4145515 39 3 1.6812926e+09
-1.8729331 4.5237989 -1.3016584 16 0 1.6812926e+09
-2.9827628 4.6051183 -1.2566981 18 1 1.6812926e+09
-3.4076598 8.2507725 2.0495746 3 14 1.6812926e+09
-4.8409119 7.4715142 2.3728633 52 15 1.6812926e+09
-12.637502 30.610842 5.2278342 25 12 1.6812926e+09
-4.8339868 7.4950519 1.7252709 56 13 1.6812926e+09
-3.3906987 8.2137957 0.77437884 7 10 1.6812926e+09
-4.8165727 7.4938116 1.0879631 57 11 1.6812926e+09
-3.3840008 8.2057018 0.15432289 60 8 1.6812926e+09
-4.8163996 7.507894 0.46565917 51 9 1.6812926e+09
-3.377955 8.1991558 -0.46445319 18 6 1.6812926e+09
-4.8183255 7.5195351 -0.15528278 46 7 1.6812926e+09
-3.3419847 8.1238632 -1.0727512 41 4 1.6812926e+09
-4.8263879 7.5321255 -0.77805281 43 5 1.6812926e+09
-2.3235459 5.6580095 -1.1799389 17 2 1.6812926e+09
-4.8330126 7.5338283 -1.4137684 39 3 1.6812926e+09
-1.8562154 4.5280743 -1.3010117 16 0 1.6812926e+09
-2.9605899 4.6078258 -1.254452 17 1 1.6812926e+09
-3.3742304 8.2513428 2.046767 3 14 1.6812926e+09
-4.8213377 7.4985199 2.3760946 57 15 1.6812926e+09
-12.526836 30.645626 5.2262731 22 12 1.6812926e+09
-4.8011746 7.5015473 1.7228878 50 13 1.6812926e+09
-3.3615122 8.2284737 0.77459669 8 10 1.6812926e+09
-4.7890496 7.5084872 1.087659 43 11 1.6812926e+09
-3.358623 8.2296219 0.15454105 83 8 1.6812926e+09
-4.7861667 7.5212851 0.46539748 52 9 1.6812926e+09
-3.3535333 8.2253532 -0.46524081 17 6 1.6812926e+09
-4.792048 7.5363083 -0.15528278 84 7 1.6812926e+09
-3.3131225 8.1383572 -1.0730554 41 4 1.6812926e+09
-4.7960544 7.542625 -0.77740049 42 5 1.6812926e+09
-2.3028579 5.6638117 -1.1794627 18 2 1.6812926e+09
-4.8000493 7.5402412 -1.4118106 39 3 1.6812926e+09
-1.8403981 4.5345259 -1.3010117 16 0 1.6812926e+09
-2.9117014 4.5668073 -1.2404138 17 1 1.6812926e+09
-3.3412247 8.2568789 2.0450823 3 14 1.6812926e+09
-4.7860236 7.5039287 2.3722172 50 15 1.6812926e+09
-12.419059 30.702778 5.2282243 27 12 1.6812926e+09
-4.7789135 7.52738 1.7247941 46 13 1.6812926e+09
-3.3327687 8.2401571 0.77459669 8 10 1.6812926e+09
-4.7628107 7.5251584 1.087659 65 11 1.6812926e+09
-3.3261323 8.2320251 0.15436654 57 8 1.6812926e+09
-4.763885 7.5442762 0.46578997 75 9 1.6812926e+09
-3.3229327 8.232378 -0.46497825 18 6 1.6812926e+09
-4.7563677 7.538197 -0.15497737 44 7 1.6812926e+09
-3.2809856 8.1406651 -1.0718385 41 4 1.6812926e+09
-4.7710266 7.5614257 -0.77761787 42 5 1.6812926e+09
-2.2995577 5.7128015 -1.1880337 17 2 1.6812926e+09
-4.7737002 7.5569501 -1.4118106 39 3 1.6812926e+09
-1.8308554 4.5566106 -1.3055381 15 0 1.6812926e+09
-2.897047 4.5790009 -1.2409754 17 1 1.6812926e+09
-3.3138256 8.2679129 2.0450823 2 14 1.6812926e+09
-4.7714572 7.5360765 2.377387 51 15 1.6812926e+09
-12.31534 30.739206 5.2274437 26 12 1.6812926e+09
-4.7447586 7.528657 1.7214581 52 13 1.6812926e+09
-4.4448676 11.102707 1.0432543 22 10 1.6812926e+09
-4.7312307 7.5333347 1.086442 46 11 1.6812926e+09
-3.3006718 8.2476501 0.15445378 37 8 1.6812926e+09
-4.7268972 7.5410004 0.46461242 62 9 1.6812926e+09
-3.2974677 8.2479897 -0.46524081 17 6 1.6812926e+09
-4.7300253 7.5547543 -0.15497737 62 7 1.6812926e+09
-3.2576501 8.1607199 -1.0730554 41 4 1.6812926e+09
-4.7419567 7.5708752 -0.77696556 42 5 1.6812926e+09
-2.2977595 5.766397 -1.197557 17 2 1.6812926e+09
-4.7446671 7.5693851 -1.4110278 39 3 1.6812926e+09
-1.8095886 4.5495081 -1.3016584 15 0 1.6812926e+09
-2.8766565 4.5803347 -1.2387292 16 1 1.6812926e+09
-3.2894349 8.2907524 2.0478899 2 14 1.6812926e+09
-4.7335496 7.5342879 2.3715711 51 15 1.6812926e+09
-12.210695 30.788895 5.2286143 24 12 1.6812926e+09
-4.7145429 7.5389333 1.7200283 57 13 1.6812926e+09
-4.4052725 11.11044 1.0426005 22 10 1.6812926e+09
-4.7009659 7.543489 1.0855293 60 11 1.6812926e+09
-3.2709417 8.2567968 0.15441015 30 8 1.6812926e+09
-4.7018661 7.5595746 0.46474329 63 9 1.6812926e+09
-3.2677388 8.2571287 -0.46510956 18 6 1.6812926e+09
-4.6943846 7.5563607 -0.15467195 65 7 1.6812926e+09
-3.2291439 8.1720419 -1.0730554 41 4 1.6812926e+09
-4.7089143 7.5797443 -0.77609569 42 5 1.6812926e+09
-2.3037131 5.8405976 -1.2113658 18 2 1.6812926e+09
-4.7169113 7.5838051 -1.4106362 39 3 1.6812926e+09
-1.7963482 4.5625386 -1.3035983 15 0 1.6812926e+09
-2.8430815 4.5639815 -1.2314295 16 1 1.6812926e+09
-3.2622545 8.3067198 2.0490131 3 14 1.6812926e+09
-4.6982703 7.5364232 2.3670478 57 15 1.6812926e+09
-12.097735 30.817541 5.2262731 24 12 1.6812926e+09
-4.6881986 7.5553441 1.7200283 58 13 1.6812926e+09
-4.3572483 11.107964 1.0408574 21 10 1.6812926e+09
-4.666769 7.5471931 1.0837038 59 11 1.6812926e+09
-4.6910872 11.971695 0.22382709 104 8 1.6812926e+09
-4.6675673 7.5661359 0.46408904 60 9 1.6812926e+09
-3.2401822 8.2760239 -0.46550336 15 6 1.6812926e+09
-4.664041 7.566319 -0.15454105 56 7 1.6812926e+09
-3.198267 8.18151 -1.0727512 41 4 1.6812926e+09
-4.6811199 7.5940166 -0.77587831 41 5 1.6812926e+09
-2.2708251 5.8165936 -1.2046995 21 2 1.6812926e+09
-4.6839204 7.5897207 -1.4086787 40 3 1.6812926e+09
-1.7804111 4.5687814 -1.3035983 16 0 1.6812926e+09
-2.8130238 4.551096 -1.2252526 17 1 1.6812926e+09
-3.2282605 8.3095379 2.046767 3 14 1.6812926e+09
-4.6693449 7.5515389 2.3664014 56 15 1.6812926e+09
-11.988276 30.870882 5.2278342 24 12 1.6812926e+09
-4.654038 7.5620294 1.7176454 56 13 1.6812926e+09
-3.2182944 8.288208 0.77481449 8 10 1.6812926e+09
-4.6390967 7.5613232 1.0833997 59 11 1.6812926e+09
-4.6438484 11.974011 0.22356531 103 8 1.6812926e+09
-4.6385193 7.5781255 0.4638274 60 9 1.6812926e+09
-3.2085688 8.2803001 -0.46510956 15 6 1.6812926e+09
-4.6362953 7.5804219 -0.15449741 63 7 1.6812926e+09
-3.1696885 8.192625 -1.0727512 41 4 1.6812926e+09
-4.650681 7.6039381 -0.77522588 42 5 1.6812926e+09
-2.255811 5.838222 -1.2075565 18 2 1.6812926e+09
-4.6599803 7.6102352 -1.4094617 39 3 1.6812926e+09
-1.766189 4.5794759 -1.3048916 17 0 1.6812926e+09
-2.7881927 4.5463586 -1.2213219 18 1 1.6812926e+09
-3.2015612 8.3224707 2.0473285 3 14 1.6812926e+09
-4.6379557 7.5566945 2.3631704 55 15 1.6812926e+09
-11.889383 30.919683 5.2293949 22 12 1.6812926e+09
-4.6212535 7.5648599 1.7147858 58 13 1.6812926e+09
-4.284059 11.149736 1.0419469 18 10 1.6812926e+09
-4.6126747 7.5774703 1.0833997 62 11 1.6812926e+09
-4.5951576 11.96601 0.223129 101 8 1.6812926e+09
-4.6120663 7.5913329 0.46369654 65 9 1.6812926e+09
-3.1819863 8.2932253 -0.46524081 15 6 1.6812926e+09
-4.6085091 7.5944228 -0.15445378 58 7 1.6812926e+09
-3.1416168 8.2007742 -1.0724469 41 4 1.6812926e+09
-4.6254396 7.619318 -0.77522588 42 5 1.6812926e+09
-2.236294 5.8483534 -1.2080326 18 2 1.6812926e+09
-4.6269708 7.6159072 -1.4075041 40 3 1.6812926e+09
-1.7476116 4.5788436 -1.3029516 15 0 1.6812926e+09
-2.7680266 4.5472593 -1.2190758 17 1 1.6812926e+09
-3.1742237 8.33815 2.0484517 3 14 1.6812926e+09
-4.6014924 7.5563412 2.3580005 56 15 1.6812926e+09
-11.776991 30.949457 5.2274437 24 12 1.6812926e+09
-4.5948191 7.5809445 1.7147858 57 13 1.6812926e+09
-4.2470617 11.163881 1.0419469 21 10 1.6812926e+09
-4.5823436 7.5871553 1.0824869 56 11 1.6812926e+09
-4.5506983 11.974968 0.22299811 100 8 1.6812926e+09
-4.5842495 7.605248 0.46356574 58 9 1.6812926e+09
-3.153904 8.3066158 -0.46537212 15 6 1.6812926e+09
-4.5819712 7.6104636 -0.15445378 59 7 1.6812926e+09
-3.1147299 8.2163305 -1.0730554 41 4 1.6812926e+09
-4.5923405 7.6276894 -0.77435613 42 5 1.6812926e+09
-2.2045832 5.8262806 -1.2018425 18 2 1.6812926e+09
-4.6003585 7.6320119 -1.4075041 40 3 1.6812926e+09
-1.7358799 4.5962133 -1.3061846 15 0 1.6812926e+09
-2.7563853 4.5657129 -1.2213219 17 1 1.6812926e+09
-3.1450987 8.3491783 2.0484517 3 14 1.6812926e+09
-4.5800872 7.5806227 2.3605855 60 15 1.6812926e+09
-11.675846 31.008867 5.2305655 25 12 1.6812926e+09
-4.5645308 7.5906305 1.713356 57 13 1.6812926e+09
-4.2131281 11.198021 1.04369 14 10 1.6812926e+09
-4.5558319 7.6031041 1.0824869 60 11 1.6812926e+09
-4.505898 11.989225 0.22295448 101 8 1.6812926e+09
-4.5563445 7.6219988 0.46356574 58 9 1.6812926e+09
-3.1234374 8.31812 -0.46537212 14 6 1.6812926e+09
-4.5528131 7.6221218 -0.15436654 52 7 1.6812926e+09
-3.0837233 8.2253675 -1.0727512 41 4 1.6812926e+09
-4.561852 7.63726 -0.77370369 41 5 1.6812926e+09
