# .PCD v0.7 - Point Cloud Data file format
VERSION 0.7
FIELDS x y z intensity ring timestamp
SIZE 4 4 4 4 2 8
TYPE F F F F U F
COUNT 1 1 1 1 1 1
WIDTH 936
HEIGHT 1
VIEWPOINT 0 0 0 1 0 0 0
POINTS 936
DATA ascii
-24.178076 26.080214 6.8996539 22 13 1.6812914e+09
-16.53611 26.043482 2.695945 33 10 1.6812914e+09
-24.001974 25.962858 4.3308601 36 11 1.6812914e+09
-1.5733973 2.4770329 0.050611973 36 8 1.6812914e+09
-24.002575 26.018084 1.8533469 32 9 1.6812914e+09
-1.4904302 2.3480592 -0.14440319 42 6 1.6812914e+09
-2.2924776 2.49281 -0.05850919 8 7 1.6812914e+09
-1.45508 2.2949381 -0.32888371 46 4 1.6812914e+09
-2.1271851 2.3135765 -0.27138343 32 5 1.6812914e+09
-1.4080104 2.2231491 -0.50378346 47 2 1.6812914e+09
-2.0483119 2.2257509 -0.47412723 41 3 1.6812914e+09
-1.3700812 2.1664999 -0.67701751 50 0 1.6812914e+09
-1.993662 2.1620791 -0.66990203 43 1 1.6812914e+09
-16.478756 26.134197 7.1134281 36 14 1.6812914e+09
-24.120802 26.082373 9.496623 35 15 1.6812914e+09
-16.458338 26.101833 4.870779 38 12 1.6812914e+09
-24.02162 26.084435 6.8796363 22 13 1.6812914e+09
-16.405277 26.037827 2.6894083 32 10 1.6812914e+09
-23.473152 25.569443 4.2514534 36 11 1.6812914e+09
-1.5598464 2.4737763 0.05043745 36 8 1.6812914e+09
-23.833504 26.00736 1.8469359 33 9 1.6812914e+09
-1.4826355 2.352989 -0.14440319 21 6 1.6812914e+09
-2.2331197 2.445492 -0.057200257 1 7 1.6812914e+09
-1.4435005 2.293448 -0.32797101 46 4 1.6812914e+09
-2.1144543 2.3151081 -0.27073106 22 5 1.6812914e+09
-1.3976324 2.2238927 -0.5028311 47 2 1.6812914e+09
-2.0371933 2.2292471 -0.47334421 41 3 1.6812914e+09
-1.3599461 2.1671765 -0.67572427 56 0 1.6812914e+09
-1.9848332 2.1668847 -0.66934055 45 1 1.6812914e+09
-16.342207 26.119272 7.0937743 38 14 1.6812914e+09
-23.970798 26.102385 9.4733591 35 15 1.6812914e+09
-16.334381 26.106789 4.8610234 39 12 1.6812914e+09
-23.824411 26.052233 6.8491344 1 13 1.6812914e+09
-16.28583 26.039297 2.6839612 30 10 1.6812914e+09
-23.44562 25.719069 4.2627106 36 11 1.6812914e+09
-1.5485529 2.4749665 0.050350189 35 8 1.6812914e+09
-23.678715 26.020237 1.8419639 32 9 1.6812914e+09
-1.4730908 2.3560324 -0.14427191 21 6 1.6812914e+09
-2.2228882 2.4514227 -0.057156626 3 7 1.6812914e+09
-1.4315467 2.2921565 -0.32705829 47 4 1.6812914e+09
-2.0908754 2.3062587 -0.26877397 35 5 1.6812914e+09
-1.3885638 2.2266743 -0.50235498 47 2 1.6812914e+09
-2.0210888 2.2272148 -0.47138661 34 3 1.6812914e+09
-1.3485479 2.1657581 -0.67378443 57 0 1.6812914e+09
-1.9670273 2.1633458 -0.6659714 43 1 1.6812914e+09
-16.225239 26.134764 7.0825438 38 14 1.6812914e+09
-23.786768 26.084198 9.4365263 35 15 1.6812914e+09
-16.214502 26.117489 4.8524384 35 12 1.6812914e+09
-22.723473 25.023474 6.5574589 4 13 1.6812914e+09
-16.154839 26.04167 2.6780779 30 10 1.6812914e+09
-23.56889 26.036196 4.3016529 34 11 1.6812914e+09
-1.5355206 2.4742515 0.050219294 35 8 1.6812914e+09
-23.484432 25.997559 1.8342444 32 9 1.6812914e+09
-1.4618167 2.3571706 -0.14400935 27 6 1.6812914e+09
-2.2226934 2.4684432 -0.057374783 2 7 1.6812914e+09
-1.4218305 2.2952776 -0.32675403 47 4 1.6812914e+09
-2.0744669 2.3043005 -0.26768669 35 5 1.6812914e+09
-1.3782028 2.2273321 -0.50140262 47 2 1.6812914e+09
-2.0099909 2.2305927 -0.47060359 34 3 1.6812914e+09
-1.3384438 2.1663413 -0.67249113 61 0 1.6812914e+09
-1.956193 2.1665881 -0.66484833 43 1 1.6812914e+09
-16.083361 26.119375 7.0623288 38 14 1.6812914e+09
-23.626165 26.099596 9.4106779 34 15 1.6812914e+09
-16.079826 26.113659 4.8407316 36 12 1.6812914e+09
-22.511635 24.973539 6.5226679 14 13 1.6812914e+09
-16.023371 26.03215 2.6713235 28 10 1.6812914e+09
-23.41316 26.046349 4.2897878 36 11 1.6812914e+09
-1.5255654 2.4774675 0.050175667 35 8 1.6812914e+09
-13.73491 15.314654 1.0762888 28 9 1.6812914e+09
-1.4588081 2.3707674 -0.14453447 45 6 1.6812914e+09
-2.1940393 2.4538541 -0.056851212 8 7 1.6812914e+09
-1.4086177 2.2917674 -0.32553709 48 4 1.6812914e+09
-2.0647483 2.3096738 -0.26746926 26 5 1.6812914e+09
-1.3665714 2.2258523 -0.4999741 49 2 1.6812914e+09
-1.9939457 2.2284076 -0.46864599 36 3 1.6812914e+09
-1.3270917 2.1648209 -0.6705513 63 0 1.6812914e+09
-1.9453598 2.1697807 -0.66372526 43 1 1.6812914e+09
-15.967441 26.124758 7.0494142 38 14 1.6812914e+09
-23.458733 26.088022 9.3783674 41 15 1.6812914e+09
-15.959665 26.112059 4.830586 36 12 1.6812914e+09
-22.361565 24.973101 6.5031271 14 13 1.6812914e+09
-15.901254 26.036911 2.6660943 26 10 1.6812914e+09
-23.247728 26.044622 4.2760968 38 11 1.6812914e+09
-1.5134341 2.4761117 0.050044771 35 8 1.6812914e+09
-13.614284 15.28184 1.0707936 1 9 1.6812914e+09
-1.4483383 2.3713291 -0.14427191 46 6 1.6812914e+09
-2.180474 2.4558971 -0.05672032 30 7 1.6812914e+09
-1.3997192 2.2943068 -0.32523283 50 4 1.6812914e+09
-2.0421696 2.2997696 -0.26551217 26 5 1.6812914e+09
-1.3549671 2.2243185 -0.49854559 49 2 1.6812914e+09
-1.9861549 2.2353542 -0.46864599 42 3 1.6812914e+09
-1.3170197 2.1653118 -0.669258 60 0 1.6812914e+09
-1.9316615 2.1689532 -0.66147918 45 1 1.6812914e+09
-15.839521 26.119925 7.0331297 36 14 1.6812914e+09
-23.298351 26.092299 9.3505812 33 15 1.6812914e+09
-15.833851 26.110594 4.8200498 38 12 1.6812914e+09
-22.217173 24.986822 6.4864459 18 13 1.6812914e+09
-15.773518 26.021345 2.6591218 26 10 1.6812914e+09
-23.09741 26.058767 4.2651443 38 11 1.6812914e+09
-1.5021921 2.4771037 0.04995751 35 8 1.6812914e+09
-13.522802 15.286269 1.0677843 3 9 1.6812914e+09
-1.4361742 2.3699625 -0.14387809 46 6 1.6812914e+09
-2.1785107 2.4709842 -0.056894843 62 7 1.6812914e+09
-1.3865677 2.2906842 -0.32401589 47 4 1.6812914e+09
-2.0172307 2.2885804 -0.26333761 11 5 1.6812914e+09
-1.3471946 2.2290344 -0.49854559 47 2 1.6812914e+09
-1.9717944 2.2348773 -0.46707991 42 3 1.6812914e+09
-1.3094535 2.1698959 -0.669258 59 0 1.6812914e+09
-1.9204659 2.1723733 -0.6603561 43 1 1.6812914e+09
-15.705553 26.104082 7.0140376 39 14 1.6812914e+09
-23.130213 26.08674 9.3195639 40 15 1.6812914e+09
-15.708242 26.108576 4.8095136 38 12 1.6812914e+09
-22.071331 24.997999 6.4692888 11 13 1.6812914e+09
-15.643394 26.021351 2.6532388 22 10 1.6812914e+09
-22.929241 26.051697 4.250845 38 11 1.6812914e+09
-1.4905289 2.478307 0.049870245 35 8 1.6812914e+09
-13.473275 15.343234 1.0683078 7 9 1.6812914e+09
-1.4197701 2.3623664 -0.14309043 38 6 1.6812914e+09
-2.1616263 2.4691813 -0.056676686 11 7 1.6812914e+09
-1.3768868 2.2936223 -0.32371163 48 4 1.6812914e+09
-2.0075865 2.293736 -0.26312014 11 5 1.6812914e+09
-1.3368843 2.2295125 -0.49759328 45 2 1.6812914e+09
-1.9574612 2.234328 -0.46551386 42 3 1.6812914e+09
-1.298154 2.1682353 -0.66731817 57 0 1.6812914e+09
-1.9032109 2.1680946 -0.65698695 45 1 1.6812914e+09
-15.598538 26.142639 7.0089841 34 14 1.6812914e+09
-22.969013 26.097021 9.2930689 33 15 1.6812914e+09
-15.578285 26.108717 4.7989774 38 12 1.6812914e+09
-21.918085 25.008604 6.4511786 11 13 1.6812914e+09
-15.525681 26.030878 2.648663 25 10 1.6812914e+09
-22.761757 26.053347 4.2374582 35 11 1.6812914e+09
-1.4780303 2.4770532 0.049739353 35 8 1.6812914e+09
-13.463945 15.440966 1.0718403 9 9 1.6812914e+09
-1.405129 2.3565824 -0.14243405 15 6 1.6812914e+09
-2.1546369 2.478596 -0.05672032 41 7 1.6812914e+09
-1.3676039 2.2962821 -0.32340741 48 4 1.6812914e+09
-1.9979314 2.2988527 -0.26290271 19 5 1.6812914e+09
-1.3249449 2.2280664 -0.4961648 46 2 1.6812914e+09
-1.9460125 2.237766 -0.46473083 42 3 1.6812914e+09
-1.2893456 2.1706762 -0.66667151 55 0 1.6812914e+09
-1.8940274 2.1728909 -0.65642542 38 1 1.6812914e+09
-15.438943 26.081625 6.9780998 4 14 1.6812914e+09
-22.811022 26.100672 9.2659283 35 15 1.6812914e+09
-15.454351 26.107685 4.7888317 35 12 1.6812914e+09
-21.775869 25.022026 6.4349747 14 13 1.6812914e+09
-15.386532 26.003464 2.6403832 25 10 1.6812914e+09
-22.581224 26.029562 4.2207251 35 11 1.6812914e+09
-1.4642866 2.4735901 0.049564831 36 8 1.6812914e+09
-13.406696 15.484097 1.0715787 41 9 1.6812914e+09
-1.3930854 2.3550243 -0.14204022 26 6 1.6812914e+09
-2.1394279 2.4785421 -0.056545794 39 7 1.6812914e+09
-1.3570583 2.2967675 -0.32279891 48 4 1.6812914e+09
-1.9817446 2.2963979 -0.26181543 21 5 1.6812914e+09
-1.3134224 2.2263341 -0.49473625 49 2 1.6812914e+09
-1.9317229 2.2370801 -0.46316478 42 3 1.6812914e+09
-1.278087 2.1689196 -0.66473162 57 0 1.6812914e+09
-1.8752502 2.1666133 -0.65249473 18 1 1.6812914e+09
-15.337937 26.118553 6.9736075 38 14 1.6812914e+09
-22.651697 26.101717 9.2381411 32 15 1.6812914e+09
-15.326865 26.09972 4.7775154 35 12 1.6812914e+09
-21.629009 25.029186 6.4173398 14 13 1.6812914e+09
-15.274236 26.0205 2.6366789 26 10 1.6812914e+09
-22.446495 26.05747 4.2125106 35 11 1.6812914e+09
-1.4531143 2.4743741 0.04947757 36 8 1.6812914e+09
-13.399777 15.585689 1.0753729 42 9 1.6812914e+09
-1.3734964 2.3404868 -0.14085874 11 6 1.6812914e+09
-2.1372805 2.4935775 -0.05672032 12 7 1.6812914e+09
-1.346526 2.2972074 -0.32219043 50 4 1.6812914e+09
-1.9785868 2.3089674 -0.2624678 11 5 1.6812914e+09
-1.3019284 2.2245481 -0.49330777 53 2 1.6812914e+09
-1.920682 2.2400653 -0.46238172 42 3 1.6812914e+09
-1.2717255 2.1754532 -0.66537827 55 0 1.6812914e+09
-1.8644941 2.169456 -0.65137166 45 1 1.6812914e+09
-15.212341 26.112991 6.9578848 43 14 1.6812914e+09
-22.498955 26.109287 9.2129393 34 15 1.6812914e+09
-15.215781 26.118919 4.7712717 35 12 1.6812914e+09
-21.477575 25.030045 6.3982763 14 13 1.6812914e+09
-15.150735 26.017702 2.6310141 22 10 1.6812914e+09
-22.282806 26.050819 4.1988196 38 11 1.6812914e+09
-1.4432112 2.4772708 0.049433939 35 8 1.6812914e+09
-13.379341 15.672235 1.0781207 35 9 1.6812914e+09
-1.3502619 2.3193667 -0.13928343 4 6 1.6812914e+09
-2.1269407 2.4991217 -0.056676686 9 7 1.6812914e+09
-1.3360069 2.2976017 -0.32158196 49 4 1.6812914e+09
-1.9608139 2.3044937 -0.26116306 9 5 1.6812914e+09
-1.2904629 2.2227092 -0.49187928 53 2 1.6812914e+09
-1.9064366 2.2392459 -0.46081564 43 3 1.6812914e+09
-1.2592841 2.1715198 -0.66279179 57 0 1.6812914e+09
-1.8505725 2.1685491 -0.64912552 46 1 1.6812914e+09
-15.094284 26.11953 6.9455309 40 14 1.6812914e+09
-22.340153 26.108768 9.185153 33 15 1.6812914e+09
-15.09363 26.11842 4.7615161 34 12 1.6812914e+09
-21.321621 25.024546 6.3777828 14 13 1.6812914e+09
-15.036158 26.029451 2.626874 22 10 1.6812914e+09
-22.121044 26.045233 4.1854329 34 11 1.6812914e+09
-1.4308069 2.4757986 0.049303047 35 8 1.6812914e+09
-22.071699 26.033121 1.7868803 32 9 1.6812914e+09
-1.3271918 2.2981133 -0.13770813 9 6 1.6812914e+09
-2.1117399 2.4989028 -0.056502163 7 7 1.6812914e+09
-1.3230249 2.2936502 -0.32036498 46 4 1.6812914e+09
-1.952758 2.3113241 -0.26116306 21 5 1.6812914e+09
-1.2802494 2.222945 -0.49092695 53 2 1.6812914e+09
-1.8890266 2.2345881 -0.45846656 43 3 1.6812914e+09
-1.2480881 2.1696196 -0.66085184 59 0 1.6812914e+09
-1.8382577 2.1694274 -0.64744097 45 1 1.6812914e+09
-14.986057 26.142467 6.9376698 38 14 1.6812914e+09
-22.183195 26.109304 9.1580124 34 15 1.6812914e+09
-14.979037 26.130241 4.7541018 34 12 1.6812914e+09
-21.169144 25.022015 6.358243 18 13 1.6812914e+09
-14.915492 26.029919 2.6216447 20 10 1.6812914e+09
-21.957998 26.036943 4.1717424 34 11 1.6812914e+09
-1.4184303 2.4742699 0.049172152 35 8 1.6812914e+09
-21.802189 25.898033 1.772357 27 9 1.6812914e+09
-1.3563496 2.367744 -0.1416464 45 6 1.6812914e+09
-2.0997853 2.5024338 -0.056414898 25 7 1.6812914e+09
-1.3125486 2.2939453 -0.31975654 46 4 1.6812914e+09
-1.941471 2.3143151 -0.26072815 20 5 1.6812914e+09
-1.2712661 2.2252688 -0.4904508 49 2 1.6812914e+09
-1.8732625 2.231725 -0.45650896 43 3 1.6812914e+09
-1.2381164 2.1697664 -0.65955865 60 0 1.6812914e+09
-1.8275309 2.1721077 -0.6463179 45 1 1.6812914e+09
-14.851368 26.118382 6.9174547 38 14 1.6812914e+09
-22.024946 26.10721 9.1302252 34 15 1.6812914e+09
-14.82183 26.066452 4.7330298 18 12 1.6812914e+09
-21.026409 25.029993 6.3415618 14 13 1.6812914e+09
-14.726097 25.908604 2.6042135 6 10 1.6812914e+09
-21.653467 25.858526 4.1309743 26 11 1.6812914e+09
-1.4097849 2.4792061 0.049172152 35 8 1.6812914e+09
-21.570734 25.805435 1.7608433 57 9 1.6812914e+09
-1.334524 2.3485787 -0.14020236 49 6 1.6812914e+09
-2.0766134 2.4924846 -0.056022223 8 7 1.6812914e+09
-1.3020865 2.2941952 -0.31914803 46 4 1.6812914e+09
-1.9269933 2.3134332 -0.25985834 22 5 1.6812914e+09
-1.2622823 2.2275567 -0.48997462 54 2 1.6812914e+09
-1.8654611 2.2382503 -0.45650896 42 3 1.6812914e+09
-1.2293468 2.1719725 -0.658912 60 0 1.6812914e+09
-1.8058535 2.1616712 -0.6412642 43 1 1.6812914e+09
-14.74096 26.13611 6.9084706 38 14 1.6812914e+09
-21.870089 26.10804 9.1037302 32 15 1.6812914e+09
-14.64099 25.95886 4.7041531 40 12 1.6812914e+09
-20.876024 25.027863 6.3224983 11 13 1.6812914e+09
-14.625785 25.942493 2.6024704 22 10 1.6812914e+09
-21.601152 25.97974 4.1382761 2 11 1.6812914e+09
-1.3962156 2.4754007 0.048997626 35 8 1.6812914e+09
-21.198256 25.540581 1.7376845 32 9 1.6812914e+09
-1.3299913 2.3597503 -0.1405962 45 6 1.6812914e+09
-2.0599201 2.4900997 -0.055804066 6 7 1.6812914e+09
-1.2904227 2.292237 -0.31823531 47 4 1.6812914e+09
-1.9125451 2.3124785 -0.25898853 13 5 1.6812914e+09
-1.2520968 2.2276688 -0.48902228 49 2 1.6812914e+09
-1.8497505 2.2352495 -0.45455137 43 3 1.6812914e+09
-1.2193964 2.1720374 -0.65761876 61 0 1.6812914e+09
-1.7982968 2.1679616 -0.6412642 29 1 1.6812914e+09
-14.618719 26.132128 6.8938708 35 14 1.6812914e+09
-21.713947 26.106247 9.0765896 34 15 1.6812914e+09
-24.60858 43.99226 7.9601836 1 12 1.6812914e+09
-20.736864 25.038216 6.3067708 14 13 1.6812914e+09
-14.51934 25.965128 2.599638 3 10 1.6812914e+09
-36.28828 43.934608 6.9823141 3 11 1.6812914e+09
-1.383909 2.4737129 0.048866734 35 8 1.6812914e+09
-21.08198 25.581673 1.7354603 22 9 1.6812914e+09
-1.3229628 2.3665581 -0.14072746 46 6 1.6812914e+09
-2.0448582 2.4895575 -0.055629544 11 7 1.6812914e+09
-1.2824134 2.2967274 -0.31823531 47 4 1.6812914e+09
-1.8917935 2.3037622 -0.25724888 11 5 1.6812914e+09
-1.2411208 2.2253759 -0.4875938 49 2 1.6812914e+09
-1.8407571 2.2394662 -0.45415986 42 3 1.6812914e+09
-1.2047669 2.1636164 -0.65373898 68 0 1.6812914e+09
-1.7798551 2.1610804 -0.63733345 15 1 1.6812914e+09
-14.502426 26.127209 6.8798323 34 14 1.6812914e+09
-21.571873 26.111092 9.0533266 32 15 1.6812914e+09
-24.427811 44.011013 7.9488673 22 12 1.6812914e+09
-20.581989 25.01967 6.2848468 18 13 1.6812914e+09
-24.396524 43.990837 4.3978786 1 10 1.6812914e+09
-36.004082 43.901764 6.9570622 7 11 1.6812914e+09
-1.3744863 2.4761019 0.048823103 34 8 1.6812914e+09
-35.932259 43.892227 2.9709811 1 9 1.6812914e+09
-1.3138983 2.3687484 -0.1405962 49 6 1.6812914e+09
-2.0345731 2.4947453 -0.05558591 7 7 1.6812914e+09
-1.2711866 2.2944531 -0.31732258 47 4 1.6812914e+09
-1.8557557 2.2753272 -0.2533347 8 5 1.6812914e+09
-1.2297859 2.2232497 -0.48616531 48 2 1.6812914e+09
-1.8251075 2.2363257 -0.45220229 42 3 1.6812914e+09
-1.1948754 2.1635792 -0.65244579 71 0 1.6812914e+09
-1.7695879 2.1632047 -0.63621044 35 1 1.6812914e+09
-14.389993 26.139257 6.8697248 33 14 1.6812914e+09
-21.411661 26.102217 9.0242472 35 15 1.6812914e+09
-24.238314 44.031113 7.9371605 20 12 1.6812914e+09
-20.440182 25.024847 6.2681665 14 13 1.6812914e+09
-24.212093 44.001667 4.3909063 7 10 1.6812914e+09
-35.773834 43.932896 6.9421544 7 11 1.6812914e+09
-1.3622223 2.4743135 0.048692212 35 8 1.6812914e+09
-35.679611 43.895348 2.9627385 2 9 1.6812914e+09
-1.2960061 2.3558149 -0.13954599 47 6 1.6812914e+09
-2.0163977 2.4901896 -0.055324122 25 7 1.6812914e+09
-1.2607827 2.2945256 -0.31671411 47 4 1.6812914e+09
-1.8112929 2.2376473 -0.24833325 4 5 1.6812914e+09
-1.2196599 2.2232237 -0.48521295 49 2 1.6812914e+09
-1.814175 2.2388511 -0.45141923 42 3 1.6812914e+09
-1.1849984 2.1634989 -0.65115249 70 0 1.6812914e+09
-1.7616473 2.1696761 -0.63621044 41 1 1.6812914e+09
-14.25664 26.112352 6.8495097 34 14 1.6812914e+09
-21.262451 26.10565 8.9996929 32 15 1.6812914e+09
-24.03714 44.028759 7.9215517 22 12 1.6812914e+09
-20.261482 24.983593 6.240047 18 13 1.6812914e+09
-14.161971 25.960514 2.5841677 2 10 1.6812914e+09
-35.517284 43.930157 6.9220743 11 11 1.6812914e+09
-1.3495559 2.4727051 0.04856132 35 8 1.6812914e+09
-35.405613 43.885937 2.9533179 4 9 1.6812914e+09
-1.2861689 2.3583567 -0.13941471 25 6 1.6812914e+09
-2.0061243 2.4952674 -0.055280495 8 7 1.6812914e+09
-1.2511789 2.2969513 -0.31640986 47 4 1.6812914e+09
-1.7581358 2.1877317 -0.24202706 4 5 1.6812914e+09
-1.211892 2.2274675 -0.48521295 49 2 1.6812914e+09
-1.8016964 2.2394061 -0.45024469 43 3 1.6812914e+09
-1.1751369 2.1633763 -0.64985925 73 0 1.6812914e+09
-1.7448703 2.1644478 -0.63284123 34 1 1.6812914e+09
-14.145765 26.136578 6.8422103 33 14 1.6812914e+09
-21.104368 26.106413 8.9731979 34 15 1.6812914e+09
-23.828592 44.029686 7.9059424 25 12 1.6812914e+09
-20.137457 25.017548 6.2300391 14 13 1.6812914e+09
-14.036902 25.946264 2.5778489 3 10 1.6812914e+09
-35.272163 43.955536 6.9056454 1 11 1.6812914e+09
-1.3373506 2.4708037 0.048430424 35 8 1.6812914e+09
-20.716501 25.865734 1.7349368 11 9 1.6812914e+09
-1.2719976 2.3518481 -0.13875833 11 6 1.6812914e+09
-1.9895909 2.4924982 -0.055062339 6 7 1.6812914e+09
-1.2396196 2.2947526 -0.31549716 48 4 1.6812914e+09
-1.7473754 2.1899667 -0.24159214 7 5 1.6812914e+09
-1.1990657 2.2232509 -0.48330829 49 2 1.6812914e+09
-1.7903887 2.2421405 -0.44946164 43 3 1.6812914e+09
-1.1664343 2.1653385 -0.64921266 70 0 1.6812914e+09
-1.741881 2.1762238 -0.6345259 29 1 1.6812914e+09
-14.0268 26.134281 6.8287334 34 14 1.6812914e+09
-20.957169 26.110243 8.9492874 33 15 1.6812914e+09
-23.626884 44.023392 7.8899441 28 12 1.6812914e+09
-20.007099 25.034016 6.2166944 18 13 1.6812914e+09
-13.913284 25.933653 2.571748 4 10 1.6812914e+09
-20.675013 25.952911 4.0640416 36 11 1.6812914e+09
-1.3287177 2.475457 0.048430424 35 8 1.6812914e+09
-20.678932 26.004324 1.7393855 73 9 1.6812914e+09
-1.2649591 2.3584747 -0.13888961 11 6 1.6812914e+09
-1.9746568 2.491601 -0.054887816 9 7 1.6812914e+09
-1.2316018 2.2990658 -0.31549716 53 4 1.6812914e+09
-1.7381706 2.1941035 -0.24137467 8 5 1.6812914e+09
-1.1901418 2.2252579 -0.4828321 50 2 1.6812914e+09
-1.7733289 2.2367826 -0.44711256 42 3 1.6812914e+09
-1.1565959 2.1651349 -0.64791936 70 0 1.6812914e+09
-1.7266796 2.1727672 -0.63171822 29 1 1.6812914e+09
-13.913743 26.14222 6.8180647 33 14 1.6812914e+09
-20.798157 26.098257 8.9202089 32 15 1.6812914e+09
-23.422026 44.009678 7.8727741 26 12 1.6812914e+09
-19.869244 25.040266 6.2009668 18 13 1.6812914e+09
-13.813317 25.964474 2.5700049 4 10 1.6812914e+09
-20.607388 26.054111 4.0686049 46 11 1.6812914e+09
-1.3165495 2.4734583 0.048299532 35 8 1.6812914e+09
-20.557085 26.037163 1.7367686 48 9 1.6812914e+09
-1.2578896 2.3650811 -0.13902089 42 6 1.6812914e+09
-1.9659475 2.4984787 -0.054887816 6 7 1.6812914e+09
-1.2177559 2.2923899 -0.31397596 45 4 1.6812914e+09
-1.733587 2.2040675 -0.24180959 7 5 1.6812914e+09
-1.1812186 2.2272298 -0.48235598 49 2 1.6812914e+09
-1.7624495 2.2390833 -0.4463295 42 3 1.6812914e+09
-1.1490312 2.1691589 -0.64791936 68 0 1.6812914e+09
-1.7175725 2.1768713 -0.63115668 43 1 1.6812914e+09
-13.792846 26.134611 6.8034649 32 14 1.6812914e+09
-20.667963 26.121464 8.9034081 32 15 1.6812914e+09
-13.704183 25.966616 4.6343026 2 12 1.6812914e+09
-19.737663 25.05357 6.1871448 14 13 1.6812914e+09
-13.665667 25.904593 2.5593283 7 10 1.6812914e+09
-20.465734 26.061491 4.0585651 66 11 1.6812914e+09
-1.3055767 2.4736164 0.048212271 35 8 1.6812914e+09
-20.422939 26.053749 1.7331051 42 9 1.6812914e+09
-1.248463 2.3672483 -0.13888961 49 6 1.6812914e+09
-1.9510477 2.4974556 -0.05471329 12 7 1.6812914e+09
-1.2097465 2.2966266 -0.31397596 13 4 1.6812914e+09
-1.7243466 2.2081449 -0.24159214 6 5 1.6812914e+09
-1.1711552 2.2269933 -0.48140362 49 2 1.6812914e+09
-1.747005 2.2355063 -0.44437191 43 3 1.6812914e+09
-1.1380881 2.1667404 -0.64597946 66 0 1.6812914e+09
-1.7009301 2.1713619 -0.62778747 45 1 1.6812914e+09
-13.665393 26.113525 6.7854958 29 14 1.6812914e+09
-20.508015 26.106094 8.873682 34 15 1.6812914e+09
-13.637498 26.06024 4.6424975 8 12 1.6812914e+09
-19.588087 25.043072 6.1676054 18 13 1.6812914e+09
-13.594781 25.989653 2.5630324 11 10 1.6812914e+09
-20.331881 26.068565 4.0491338 48 11 1.6812914e+09
-1.2969341 2.4781585 0.048212271 35 8 1.6812914e+09
-20.264393 26.0382 1.7273482 43 9 1.6812914e+09
-1.2390366 2.3693788 -0.13875833 49 6 1.6812914e+09
-1.934644 2.4943862 -0.054495137 6 7 1.6812914e+09
-1.1959857 2.289834 -0.31245473 13 4 1.6812914e+09
-1.7273328 2.227911 -0.24311431 6 5 1.6812914e+09
-1.1637638 2.230865 -0.48140362 49 2 1.6812914e+09
-1.7335138 2.233495 -0.44280586 40 3 1.6812914e+09
-1.1305178 2.1707001 -0.64597946 64 0 1.6812914e+09
-1.6963381 2.1811273 -0.6289106 46 1 1.6812914e+09
-13.564134 26.130592 6.7781963 29 14 1.6812914e+09
-20.384186 26.126362 8.8575268 30 15 1.6812914e+09
-13.569205 26.140388 4.6487412 36 12 1.6812914e+09
-19.449217 25.036186 6.1499705 18 13 1.6812914e+09
-13.482194 25.994944 2.5588925 11 10 1.6812914e+09
-20.181501 26.06287 4.0372682 50 11 1.6812914e+09
-1.2841079 2.4735689 0.048037749 36 8 1.6812914e+09
-20.124489 26.036129 1.7227688 39 9 1.6812914e+09
-1.2300246 2.3712578 -0.13862705 48 6 1.6812914e+09
-1.9198135 2.4932108 -0.054320611 13 7 1.6812914e+09
-1.1872458 2.2915838 -0.31215051 32 4 1.6812914e+09
-1.7290713 2.2454517 -0.24441905 4 5 1.6812914e+09
-1.1525915 2.2283714 -0.47997513 54 2 1.6812914e+09
-1.7166452 2.2278123 -0.44045678 12 3 1.6812914e+09
-1.1196144 2.1681936 -0.64403963 64 0 1.6812914e+09
-1.6846186 2.1809642 -0.627226 46 1 1.6812914e+09
-13.43048 26.095465 6.7568579 29 14 1.6812914e+09
-20.215944 26.098089 8.823925 32 15 1.6812914e+09
-13.361498 25.961439 4.6085482 6 12 1.6812914e+09
-19.303242 25.028145 6.1313834 18 13 1.6812914e+09
-13.344655 25.939848 2.5490875 21 10 1.6812914e+09
-20.034433 26.060377 4.0260115 43 11 1.6812914e+09
-1.2754657 2.4780364 0.048037749 36 8 1.6812914e+09
-19.972677 26.027006 1.7175353 38 9 1.6812914e+09
-1.2194591 2.3710952 -0.13836451 48 6 1.6812914e+09
-1.906536 2.4939463 -0.054189719 7 7 1.6812914e+09
-1.1769748 2.2912979 -0.31154203 41 4 1.6812914e+09
-1.7208296 2.2517741 -0.24441905 4 5 1.6812914e+09
-1.1436875 2.2301965 -0.47949898 54 2 1.6812914e+09
-1.7043477 2.2279148 -0.43928221 12 3 1.6812914e+09
-1.1098411 2.1677876 -0.64274633 64 0 1.6812914e+09
-1.6706721 2.1794002 -0.62497991 46 1 1.6812914e+09
-13.293917 26.053217 6.7338352 14 14 1.6812914e+09
-20.071714 26.099586 8.8006611 28 15 1.6812914e+09
-13.332515 26.128899 4.6300101 40 12 1.6812914e+09
-19.169498 25.034977 6.1166091 14 13 1.6812914e+09
-13.298125 26.083996 2.5584569 30 10 1.6812914e+09
-19.881607 26.049284 4.0135374 46 11 1.6812914e+09
-1.2629715 2.4760122 0.047906853 36 8 1.6812914e+09
-19.837812 26.048393 1.7141333 35 9 1.6812914e+09
-1.2073636 2.3688738 -0.13797069 49 6 1.6812914e+09
-1.8932766 2.4946189 -0.054058824 21 7 1.6812914e+09
-1.1640719 2.2867479 -0.31032506 28 4 1.6812914e+09
-1.7159761 2.2617304 -0.24485394 8 5 1.6812914e+09
-1.1347849 2.2319865 -0.4790228 54 2 1.6812914e+09
-1.6950639 2.2318869 -0.4388907 27 3 1.6812914e+09
-1.1022675 2.1716485 -0.64274633 66 0 1.6812914e+09
-1.6586183 2.1794102 -0.62329531 46 1 1.6812914e+09
-13.190643 26.086548 6.7299047 15 14 1.6812914e+09
-19.918764 26.098116 8.7754593 26 15 1.6812914e+09
-13.223289 26.151146 4.6253276 43 12 1.6812914e+09
-18.989988 24.989796 6.0884905 18 13 1.6812914e+09
-13.196885 26.110249 2.5564957 32 10 1.6812914e+09
-19.735098 26.045357 4.0022807 38 11 1.6812914e+09
-1.2520676 2.4759431 0.047819592 36 8 1.6812914e+09
-19.698578 26.053766 1.7099465 38 9 1.6812914e+09
-1.1990874 2.3730738 -0.13797069 49 6 1.6812914e+09
-1.8755147 2.4892478 -0.05379704 9 7 1.6812914e+09
-1.1594321 2.2974453 -0.31123778 46 4 1.6812914e+09
-1.711074 2.2716804 -0.24528886 11 5 1.6812914e+09
-1.1236775 2.2293572 -0.47759432 50 2 1.6812914e+09
-1.6768347 2.2240062 -0.43615007 11 3 1.6812914e+09
-1.0925124 2.1711671 -0.64145315 63 0 1.6812914e+09
-1.6465851 2.1793635 -0.6216107 47 1 1.6812914e+09
-12.530799 24.986855 6.4351029 4 14 1.6812914e+09
-19.770824 26.083199 8.7483177 20 15 1.6812914e+09
-13.103291 26.128628 4.6136208 41 12 1.6812914e+09
-18.9011 25.044796 6.0865841 14 13 1.6812914e+09
-13.069965 26.0849 2.5495234 29 10 1.6812914e+09
-19.382967 25.767097 3.9490387 28 11 1.6812914e+09
-1.2393732 2.4711413 0.04764507 38 8 1.6812914e+09
-19.571587 26.065046 1.7064137 27 9 1.6812914e+09
-1.186743 2.3681061 -0.13744557 48 6 1.6812914e+09
-1.8683143 2.4977789 -0.053840671 7 7 1.6812914e+09
-1.1473706 2.2923987 -0.31002083 54 4 1.6812914e+09
-1.7020364 2.2753501 -0.24507141 9 5 1.6812914e+09
-1.1147933 2.2310696 -0.47711813 49 2 1.6812914e+09
-1.672027 2.2337947 -0.4369331 11 3 1.6812914e+09
-1.084927 2.1749675 -0.64145315 63 0 1.6812914e+09
-1.6349529 2.1789734 -0.61992615 46 1 1.6812914e+09
-12.43808 25.019537 6.4322953 7 14 1.6812914e+09
-19.569279 26.005411 8.6992064 22 15 1.6812914e+09
-12.99332 26.13662 4.606987 40 12 1.6812914e+09
-18.75469 25.032068 6.0675201 14 13 1.6812914e+09
-12.976745 26.114719 2.5482161 30 10 1.6812914e+09
-19.157766 25.653692 3.9213529 26 11 1.6812914e+09
-1.2307398 2.4754527 0.04764507 38 8 1.6812914e+09
-14.125881 18.95207 1.2369603 1 9 1.6812914e+09
-1.1773604 2.3699977 -0.1373143 49 6 1.6812914e+09
-1.8506253 2.4922571 -0.053578883 9 7 1.6812914e+09
-1.143767 2.3052843 -0.31123778 59 4 1.6812914e+09
-1.7115378 2.3055413 -0.24768086 11 5 1.6812914e+09
-1.1037354 2.2283478 -0.47568965 53 2 1.6812914e+09
-1.6583154 2.2316995 -0.43536705 38 3 1.6812914e+09
-1.0730529 2.1700795 -0.6388666 66 0 1.6812914e+09
-1.6225809 2.1790969 -0.61824161 47 1 1.6812914e+09
-12.343133 25.047504 6.4283643 14 14 1.6812914e+09
-19.414774 25.98844 8.6707735 20 15 1.6812914e+09
-12.876905 26.130867 4.598012 39 12 1.6812914e+09
-18.626179 25.04225 6.0541754 18 13 1.6812914e+09
-12.851244 26.101776 2.5423331 29 10 1.6812914e+09
-19.28686 26.015396 3.9663801 38 11 1.6812914e+09
-1.219452 2.4754605 0.047557805 38 8 1.6812914e+09
-14.108298 19.073957 1.2415397 3 9 1.6812914e+09
-1.1664637 2.3698156 -0.13705175 50 6 1.6812914e+09
-1.8404282 2.4966922 -0.053535253 7 7 1.6812914e+09
-1.1309372 2.3005502 -0.31002083 61 4 1.6812914e+09
-1.6590579 2.2514255 -0.24115723 6 5 1.6812914e+09
-1.0937901 2.2277792 -0.47473729 56 2 1.6812914e+09
-1.6578605 2.2473977 -0.43732464 36 3 1.6812914e+09
-1.0654714 2.1738117 -0.6388666 64 0 1.6812914e+09
-1.613513 2.182791 -0.61768007 47 1 1.6812914e+09
-12.228804 25.046602 6.4165726 11 14 1.6812914e+09
-19.303566 26.038088 8.6636648 18 15 1.6812914e+09
-12.757212 26.129068 4.589427 29 12 1.6812914e+09
-18.477417 25.033352 6.0355883 18 13 1.6812914e+09
-12.736026 26.097235 2.5375395 28 10 1.6812914e+09
-19.179749 26.060577 3.9630337 36 11 1.6812914e+09
-1.2097083 2.4774554 0.04751417 38 8 1.6812914e+09
-19.124491 26.042562 1.691498 42 9 1.6812914e+09
-1.155998 2.3693843 -0.1367892 52 6 1.6812914e+09
-1.8213483 2.488996 -0.053229839 9 7 1.6812914e+09
-1.1228999 2.3044839 -0.31002083 57 4 1.6812914e+09
-1.6231881 2.2190566 -0.23702559 3 5 1.6812914e+09
-1.086007 2.2315836 -0.47473729 55 2 1.6812914e+09
-1.6383086 2.2372532 -0.43419251 32 3 1.6812914e+09
-1.0547156 2.1709986 -0.63692671 61 0 1.6812914e+09
-1.6001053 2.1805634 -0.61543393 47 1 1.6812914e+09
-12.121266 25.036585 6.4036574 9 14 1.6812914e+09
-19.17845 26.049454 8.6462183 18 15 1.6812914e+09
-12.652205 26.133444 4.5827932 29 12 1.6812914e+09
-18.358025 25.045008 6.0236735 14 13 1.6812914e+09
-12.627503 26.105659 2.5340531 26 10 1.6812914e+09
-19.025707 26.041227 3.9499514 38 11 1.6812914e+09
-1.1993103 2.4769526 0.047426913 39 8 1.6812914e+09
-19.00124 26.055412 1.6882271 52 9 1.6812914e+09
-1.1481345 2.3732045 -0.1367892 49 6 1.6812914e+09
-1.8111767 2.4933183 -0.053186204 6 7 1.6812914e+09
-1.1098616 2.2970202 -0.3084996 53 4 1.6812914e+09
-1.6026169 2.2063141 -0.2350685 4 5 1.6812914e+09
-1.0771461 2.2331498 -0.47426116 53 2 1.6812914e+09
-1.6333994 2.246948 -0.43497553 29 3 1.6812914e+09
-1.0460849 2.1724908 -0.63628012 62 0 1.6812914e+09
-1.5827986 2.1720932 -0.61150318 46 1 1.6812914e+09
-12.022208 25.054583 6.3974805 9 14 1.6812914e+09
-19.050343 26.06555 8.6294165 20 15 1.6812914e+09
-12.54061 26.135149 4.5753794 30 12 1.6812914e+09
-18.21994 25.039492 6.0069928 14 13 1.6812914e+09
-12.513941 26.091249 2.5286059 27 10 1.6812914e+09
-18.902632 26.06329 3.943258 35 11 1.6812914e+09
-1.1874168 2.4743612 0.047296021 38 8 1.6812914e+09
-18.844282 26.030584 1.6823393 42 9 1.6812914e+09
-1.1355318 2.3681905 -0.1362641 48 6 1.6812914e+09
-1.7966025 2.4915242 -0.053011682 11 7 1.6812914e+09
-1.0996964 2.2964027 -0.30789116 53 4 1.6812914e+09
-1.5930601 2.2101555 -0.23485105 8 5 1.6812914e+09
-1.0682874 2.2346811 -0.47378498 50 2 1.6812914e+09
-1.6168571 2.2406368 -0.43262643 28 3 1.6812914e+09
-1.0395337 2.178309 -0.63692671 64 0 1.6812914e+09
-1.5762579 2.1798513 -0.61206472 40 1 1.6812914e+09
-11.915848 25.056793 6.387373 8 14 1.6812914e+09
-18.920942 26.079117 8.6119699 26 15 1.6812914e+09
-12.428099 26.134161 4.5675745 29 12 1.6812914e+09
-18.089304 25.043261 5.9926949 18 13 1.6812914e+09
-12.401131 26.100948 2.5251198 29 10 1.6812914e+09
-18.749182 26.042526 3.9301755 38 11 1.6812914e+09
-1.1751244 2.4719219 0.047165126 38 8 1.6812914e+09
-18.705044 26.038656 1.6784141 43 9 1.6812914e+09
-1.1247048 2.3678248 -0.13600154 48 6 1.6812914e+09
-1.7849789 2.4937193 -0.052924421 7 7 1.6812914e+09
-1.0923343 2.3026605 -0.30819538 53 4 1.6812914e+09
-1.5824304 2.2116563 -0.23441613 4 5 1.6812914e+09
-1.0562835 2.229522 -0.47188032 47 2 1.6812914e+09
-1.6119083 2.2502768 -0.43340945 32 3 1.6812914e+09
-1.0298619 2.177557 -0.63563347 63 0 1.6812914e+09
-1.5572472 2.1695275 -0.60757256 23 1 1.6812914e+09
-11.809397 25.069443 6.3795118 8 14 1.6812914e+09
-18.775833 26.0797 8.5893517 30 15 1.6812914e+09
-12.313288 26.139324 4.5605502 28 12 1.6812914e+09
-17.950205 25.043577 5.9769673 14 13 1.6812914e+09
-12.291912 26.105772 2.5214157 26 10 1.6812914e+09
-18.623312 26.068678 3.9237869 38 11 1.6812914e+09
-1.1664886 2.4760089 0.047165126 39 8 1.6812914e+09
-18.571995 26.044847 1.6746197 35 9 1.6812914e+09
-1.1143092 2.3672175 -0.135739 47 6 1.6812914e+09
-1.7762632 2.4999349 -0.052924421 14 7 1.6812914e+09
-1.0811272 2.29972 -0.30728266 53 4 1.6812914e+09
-1.5934927 2.2435317 -0.23724304 6 5 1.6812914e+09
-1.0460227 2.2289333 -0.47092798 49 2 1.6812914e+09
-1.5979145 2.2481289 -0.4318434 43 3 1.6812914e+09
-1.020208 2.1767635 -0.63434023 62 0 1.6812914e+09
-1.5468307 2.1709871 -0.60644948 23 1 1.6812914e+09
-11.707392 25.079609 6.3716507 8 14 1.6812914e+09
-18.659403 26.109716 8.5777197 35 15 1.6812914e+09
-12.201082 26.137396 4.5527463 27 12 1.6812914e+09
-17.812872 25.036102 5.9602866 14 13 1.6812914e+09
-12.179652 26.10338 2.5170579 25 10 1.6812914e+09
-18.479076 26.058636 3.9125295 36 11 1.6812914e+09
-1.1546707 2.473269 0.047034234 39 8 1.6812914e+09
-18.420376 26.023941 1.6691245 40 9 1.6812914e+09
-1.1049854 2.3688295 -0.13560772 45 6 1.6812914e+09
-1.7588637 2.4938769 -0.052662633 7 7 1.6812914e+09
-1.0720468 2.3012302 -0.30697843 50 4 1.6812914e+09
-1.5957205 2.2633121 -0.23876522 6 5 1.6812914e+09
-1.0361692 2.2281187 -0.46997565 54 2 1.6812914e+09
-1.5857768 2.2476475 -0.43066883 43 3 1.6812914e+09
-1.0115879 2.1781204 -0.63369364 64 0 1.6812914e+09
-1.5336025 2.1684275 -0.6042034 21 1 1.6812914e+09
-11.604438 25.087154 6.3632274 9 14 1.6812914e+09
-18.52762 26.117575 8.55898 33 15 1.6812914e+09
-12.090077 26.137241 4.5453315 29 12 1.6812914e+09
-17.684305 25.040001 5.946465 14 13 1.6812914e+09
-12.070693 26.107304 2.5133538 28 10 1.6812914e+09
-18.299429 25.99719 3.8936667 35 11 1.6812914e+09
-1.1460304 2.4772844 0.047034234 39 8 1.6812914e+09
nan nan nan 0 9 1.6812914e+09
-1.092526 2.3636048 -0.13508262 45 6 1.6812914e+09
-1.7458378 2.4938645 -0.052531742 19 7 1.6812914e+09
-1.0598536 2.2959435 -0.30576149 50 4 1.6812914e+09
-1.582085 2.2607157 -0.2378954 7 5 1.6812914e+09
-1.0273596 2.2294924 -0.4694995 57 2 1.6812914e+09
-1.5722423 2.2450888 -0.42910278 42 3 1.6812914e+09
-1.0019627 2.1772494 -0.63240033 64 0 1.6812914e+09
-1.5260239 2.1737676 -0.6042034 38 1 1.6812914e+09
-11.498528 25.087646 6.3531199 11 14 1.6812914e+09
-18.379318 26.101137 8.532486 38 15 1.6812914e+09
-11.978193 26.134388 4.5375276 29 12 1.6812914e+09
-17.558746 25.047323 5.9335971 20 13 1.6812914e+09
-11.963932 26.115316 2.5100853 29 10 1.6812914e+09
-17.736633 25.385654 3.792659 42 11 1.6812914e+09
-1.1342556 2.4744506 0.046903342 39 8 1.6812914e+09
-17.691168 25.367685 1.6190127 42 9 1.6812914e+09
-1.0832306 2.3651335 -0.13495134 47 6 1.6812914e+09
-1.7285453 2.4876401 -0.052269954 7 7 1.6812914e+09
-1.0538939 2.3041437 -0.30636993 54 4 1.6812914e+09
-1.5570933 2.2417073 -0.23528595 6 5 1.6812914e+09
-1.0195709 2.2330651 -0.4694995 61 2 1.6812914e+09
-1.5601578 2.244488 -0.42792821 40 3 1.6812914e+09
-0.99235594 2.176338 -0.63110709 64 0 1.6812914e+09
-1.5198228 2.1810772 -0.60476488 35 1 1.6812914e+09
-11.3988 25.101009 6.3463817 9 14 1.6812914e+09
nan nan nan 0 15 1.6812914e+09
-11.872602 26.144562 4.5320644 27 12 1.6812914e+09
-17.426344 25.04401 5.9183464 14 13 1.6812914e+09
-11.851087 26.109295 2.5055096 28 10 1.6812914e+09
-17.616795 25.402555 3.7859657 40 11 1.6812914e+09
-1.1256112 2.478395 0.046903342 40 8 1.6812914e+09
-17.599669 25.425179 1.618751 38 9 1.6812914e+09
-1.073938 2.366626 -0.13482006 55 6 1.6812914e+09
-1.7184292 2.4916031 -0.05222632 23 7 1.6812914e+09
-1.0417538 2.2987649 -0.30515298 54 4 1.6812914e+09
-1.5450077 2.2409849 -0.23463359 4 5 1.6812914e+09
-1.0097501 2.232137 -0.46854717 61 2 1.6812914e+09
-1.5480968 2.2438302 -0.42675367 22 3 1.6812914e+09
-0.98475307 2.1797884 -0.63110709 63 0 1.6812914e+09
-1.510811 2.1843681 -0.6042034 35 1 1.6812914e+09
-11.293123 25.100658 6.3362741 11 14 1.6812914e+09
-17.652771 25.445105 8.277235 49 15 1.6812914e+09
-11.763034 26.145309 4.5250401 27 12 1.6812914e+09
-17.302547 25.052185 5.9059548 18 13 1.6812914e+09
-11.741492 26.109617 2.5015876 28 10 1.6812914e+09
-17.657486 25.651924 3.813956 32 11 1.6812914e+09
-1.1138804 2.4754686 0.046772443 40 8 1.6812914e+09
-17.677671 25.729242 1.6341901 36 9 1.6812914e+09
-1.0646484 2.368083 -0.13468879 55 6 1.6812914e+09
-1.704061 2.4893444 -0.052051798 7 7 1.6812914e+09
-1.0316936 2.2978587 -0.30454451 55 4 1.6812914e+09
-1.5273061 2.2319932 -0.2331114 4 5 1.6812914e+09
-1.0009502 2.2334077 -0.46807101 59 2 1.6812914e+09
-1.5416534 2.2512553 -0.42714518 30 3 1.6812914e+09
-0.97418326 2.1765976 -0.6291672 63 0 1.6812914e+09
-1.4948831 2.1775923 -0.60083419 36 1 1.6812914e+09
-11.192546 25.111 6.3289742 11 14 1.6812914e+09
-17.593985 25.550323 8.2914515 40 15 1.6812914e+09
-11.648579 26.134335 4.5160651 27 12 1.6812914e+09
-17.174744 25.053738 5.8921332 14 13 1.6812914e+09
-11.62596 26.095842 2.4963584 29 10 1.6812914e+09
-17.638147 25.806612 3.8282552 38 11 1.6812914e+09
-1.1032001 2.4747741 0.046685185 40 8 1.6812914e+09
-17.610262 25.823792 1.6362836 38 9 1.6812914e+09
-1.0553613 2.3695033 -0.13455752 55 6 1.6812914e+09
-1.6939535 2.4932122 -0.052008171 18 7 1.6812914e+09
-1.0236663 2.301446 -0.30454451 55 4 1.6812914e+09
-1.5082837 2.2208476 -0.23137176 4 5 1.6812914e+09
-0.99154902 2.2322273 -0.46711865 59 2 1.6812914e+09
-1.5258286 2.244118 -0.42479607 36 3 1.6812914e+09
-0.96755683 2.1821933 -0.62981385 64 0 1.6812914e+09
-1.4845222 2.1787755 -0.59971112 39 1 1.6812914e+09
-11.091496 25.107864 6.3188667 9 14 1.6812914e+09
-17.649588 25.813847 8.3580103 42 15 1.6812914e+09
-11.547882 26.141193 4.510602 27 12 1.6812914e+09
-17.047371 25.045637 5.8768826 14 13 1.6812914e+09
-11.522733 26.108923 2.4937437 28 10 1.6812914e+09
-17.568857 25.898827 3.8328187 38 11 1.6812914e+09
-1.0939785 2.4761322 0.046641551 41 8 1.6812914e+09
-17.639334 26.051546 1.6470125 35 9 1.6812914e+09
-1.0444779 2.3661361 -0.13416368 56 6 1.6812914e+09
-1.6810381 2.4928987 -0.051877275 7 7 1.6812914e+09
-1.01403 2.3002853 -0.30393603 54 4 1.6812914e+09
-1.5120782 2.2423377 -0.2331114 8 5 1.6812914e+09
-0.98375106 2.2356751 -0.46711865 57 2 1.6812914e+09
-1.5166013 2.2473862 -0.42440459 34 3 1.6812914e+09
-0.95702523 2.1789222 -0.62787396 64 0 1.6812914e+09
-1.4731833 2.1776407 -0.59802657 43 1 1.6812914e+09
-10.98914 25.112949 6.3104439 9 14 1.6812914e+09
-17.594635 25.92725 8.3748121 42 15 1.6812914e+09
-11.438745 26.140621 4.5035777 27 12 1.6812914e+09
-16.922741 25.050091 5.8640146 14 13 1.6812914e+09
-11.420124 26.110483 2.4902575 30 10 1.6812914e+09
-17.539337 26.050552 3.8462055 35 11 1.6812914e+09
-1.0843279 2.4776452 0.04659792 41 8 1.6812914e+09
-17.510681 26.057018 1.6434798 36 9 1.6812914e+09
-1.0342147 2.3651915 -0.13390113 56 6 1.6812914e+09
-1.6709327 2.4966767 -0.051833645 19 7 1.6812914e+09
-1.0040114 2.2992613 -0.30332753 46 4 1.6812914e+09
-1.509403 2.2561352 -0.23398124 8 5 1.6812914e+09
-0.9730041 2.2323439 -0.46569017 60 2 1.6812914e+09
-1.5059922 2.2485681 -0.42362154 39 3 1.6812914e+09
-0.9503752 2.1844647 -0.62852055 63 0 1.6812914e+09
-1.4611083 2.1769645 -0.59634203 45 1 1.6812914e+09
-10.882038 25.106453 6.2992134 9 14 1.6812914e+09
-17.595789 26.124704 8.4187546 32 15 1.6812914e+09
-11.318954 26.114687 4.4922614 26 12 1.6812914e+09
-16.795551 25.049902 5.8501935 14 13 1.6812914e+09
-11.295651 26.085886 2.4839387 29 10 1.6812914e+09
-17.426233 26.078609 3.8413374 34 11 1.6812914e+09
-1.0732551 2.4770143 0.046510659 41 8 1.6812914e+09
-17.370735 26.05456 1.639293 34 9 1.6812914e+09
-1.0265294 2.371258 -0.13403241 57 6 1.6812914e+09
-1.6580489 2.4962537 -0.051702749 7 7 1.6812914e+09
-0.99262804 2.2960906 -0.3024148 46 4 1.6812914e+09
-1.5056618 2.2676079 -0.23463359 8 5 1.6812914e+09
-0.96423465 2.2334726 -0.46521398 60 2 1.6812914e+09
-1.4995044 2.2558653 -0.42401305 47 3 1.6812914e+09
-0.94274426 2.1877687 -0.62852055 62 0 1.6812914e+09
-1.4575628 2.1881266 -0.59802657 34 1 1.6812914e+09
-10.774577 25.110346 6.2902288 12 14 1.6812914e+09
-17.465025 26.136818 8.4019527 33 15 1.6812914e+09
-11.21148 26.128763 4.4875789 28 12 1.6812914e+09
-16.66692 25.056126 5.8373251 14 13 1.6812914e+09
-11.199618 26.11371 2.4828491 29 10 1.6812914e+09
-17.288456 26.068975 3.8309934 32 11 1.6812914e+09
-1.0626334 2.47615 0.046423398 41 8 1.6812914e+09
-17.231453 26.04217 1.6347135 28 9 1.6812914e+09
-1.0143167 2.3656464 -0.13350731 59 6 1.6812914e+09
-1.6479464 2.4999413 -0.051659122 22 7 1.6812914e+09
-0.9846071 2.2995415 -0.3024148 47 4 1.6812914e+09
-1.4991112 2.2749271 -0.23485105 8 5 1.6812914e+09
-0.95450598 2.2323103 -0.46426168 60 2 1.6812914e+09
-1.484805 2.2507918 -0.42205545 46 3 1.6812914e+09
-0.93320924 2.1866026 -0.62722731 63 0 1.6812914e+09
-1.4391391 2.1769626 -0.59353435 19 1 1.6812914e+09
-10.678861 25.116793 6.2829289 33 14 1.6812914e+09
-17.335522 26.130199 8.3812742 32 15 1.6812914e+09
-11.06391 26.022627 4.4629946 28 12 1.6812914e+09
-16.541803 25.047781 5.8225508 11 13 1.6812914e+09
-10.825105 25.485575 2.4194434 34 10 1.6812914e+09
-17.160511 26.073204 3.8227787 32 11 1.6812914e+09
-1.0544163 2.4796605 0.046423398 41 8 1.6812914e+09
-17.018864 25.907217 1.6226763 1 9 1.6812914e+09
-1.0064664 2.3689969 -0.13350731 59 6 1.6812914e+09
-1.6309801 2.4931405 -0.051397335 7 7 1.6812914e+09
-0.97310591 2.293654 -0.30119786 48 4 1.6812914e+09
-1.4888248 2.2757218 -0.23441613 7 5 1.6812914e+09
-0.94479716 2.2311075 -0.46330932 57 2 1.6812914e+09
-1.4755832 2.2538979 -0.42166394 45 3 1.6812914e+09
-0.92275524 2.1831715 -0.62528747 64 0 1.6812914e+09
-1.4332528 2.1837573 -0.59409589 40 1 1.6812914e+09
-10.573162 25.111256 6.2722597 12 14 1.6812914e+09
-17.185757 26.10181 8.3528414 28 15 1.6812914e+09
-10.720068 25.460251 4.3599753 32 12 1.6812914e+09
-16.424667 25.060215 5.8120656 11 13 1.6812914e+09
-10.714453 25.459354 2.4135604 43 10 1.6812914e+09
-17.012386 26.0457 3.8100007 22 11 1.6812914e+09
-1.0418797 2.4741085 0.046248872 41 8 1.6812914e+09
-16.978785 26.04384 1.6275173 45 9 1.6812914e+09
-0.99625754 2.3678918 -0.13324475 59 6 1.6812914e+09
-1.6222675 2.4988184 -0.051397335 19 7 1.6812914e+09
-0.96413404 2.2947483 -0.3008936 55 4 1.6812914e+09
-1.4668804 2.2602952 -0.23224159 6 5 1.6812914e+09
-0.93605584 2.2321277 -0.46283314 56 2 1.6812914e+09
-1.4636602 2.25283 -0.4204894 45 3 1.6812914e+09
-0.91419816 2.1841509 -0.62464082 66 0 1.6812914e+09
-1.4279051 2.193074 -0.5952189 40 1 1.6812914e+09
-10.472319 25.116529 6.2643986 11 14 1.6812914e+09
-16.975622 25.979704 8.2946825 4 15 1.6812914e+09
-10.616878 25.463327 4.3541217 28 12 1.6812914e+09
-16.288906 25.043343 5.794908 18 13 1.6812914e+09
-10.59713 25.440975 2.4081132 45 10 1.6812914e+09
-16.901115 26.073694 3.8054371 52 11 1.6812914e+09
-1.0328046 2.4779105 0.046248872 42 8 1.6812914e+09
-16.862875 26.074453 1.6255548 40 9 1.6812914e+09
-0.98565578 2.3669169 -0.13298221 60 6 1.6812914e+09
-1.6040361 2.4897714 -0.051091917 7 7 1.6812914e+09
-0.95571685 2.2982666 -0.3008936 57 4 1.6812914e+09
-1.446813 2.2465775 -0.23028451 6 5 1.6812914e+09
-0.92543983 2.2285798 -0.46140465 56 2 1.6812914e+09
-1.4504212 2.2496336 -0.41892332 45 3 1.6812914e+09
-0.90564549 2.185097 -0.62399417 64 0 1.6812914e+09
-1.4122866 2.1857822 -0.5918498 35 1 1.6812914e+09
-10.365327 25.118713 6.255414 9 14 1.6812914e+09
-16.9289 26.116722 8.3185921 38 15 1.6812914e+09
-10.574334 25.625334 4.3751941 29 12 1.6812914e+09
-16.171722 25.0637 5.7858529 18 13 1.6812914e+09
-10.614599 25.735682 2.4325168 36 10 1.6812914e+09
-16.767031 26.065756 3.7957015 45 11 1.6812914e+09
-1.0222447 2.4768786 0.046161614 42 8 1.6812914e+09
-16.728598 26.065929 1.6213678 41 9 1.6812914e+09
-0.97643745 2.3680341 -0.13285093 59 6 1.6812914e+09
-1.5953355 2.4953554 -0.051091917 20 7 1.6812914e+09
-0.94768858 2.3015888 -0.3008936 60 4 1.6812914e+09
-1.429549 2.2369404 -0.22876231 4 5 1.6812914e+09
-0.91765493 2.2317967 -0.46140465 56 2 1.6812914e+09
-1.4425598 2.254683 -0.41892332 46 3 1.6812914e+09
-0.89801258 2.1882453 -0.62399417 64 0 1.6812914e+09
-1.4072852 2.1947954 -0.59297282 28 1 1.6812914e+09
-10.268148 25.119122 6.2469912 11 14 1.6812914e+09
-16.818672 26.136166 8.3069611 38 15 1.6812914e+09
-10.570578 25.859127 4.4091434 41 12 1.6812914e+09
-16.040854 25.042801 5.7686958 20 13 1.6812914e+09
-10.560473 25.860191 2.4407966 46 10 1.6812914e+09
-16.646563 26.078117 3.7890084 42 11 1.6812914e+09
-1.011192 2.4733119 0.046030723 41 8 1.6812914e+09
-16.604496 26.062309 1.6177044 38 9 1.6812914e+09
-0.96763694 2.3689473 -0.13271965 60 6 1.6812914e+09
-1.5825884 2.4945831 -0.050961021 7 7 1.6812914e+09
-0.93911552 2.3024206 -0.30058938 60 4 1.6812914e+09
-1.4301498 2.2542732 -0.23006704 7 5 1.6812914e+09
-0.90708762 2.2281649 -0.45997617 55 2 1.6812914e+09
-1.4306997 2.253458 -0.41774878 46 3 1.6812914e+09
-0.89036864 2.1913664 -0.62399417 64 0 1.6812914e+09
-1.396064 2.1932919 -0.59128827 41 1 1.6812914e+09
-10.164869 25.116421 6.2374449 12 14 1.6812914e+09
-16.684435 26.127552 8.2856359 38 15 1.6812914e+09
-10.531191 26.021767 4.4306059 22 12 1.6812914e+09
nan nan nan 0 13 1.6812914e+09
-10.547493 26.075157 2.4577918 30 10 1.6812914e+09
-16.520899 26.081568 3.7810981 40 11 1.6812914e+09
-1.0034887 2.4791439 0.046074349 41 8 1.6812914e+09
-16.469385 26.050478 1.6133866 38 9 1.6812914e+09
-0.95842743 2.3699956 -0.13258837 60 6 1.6812914e+09
-1.572536 2.4979789 -0.050917394 20 7 1.6812914e+09
-0.93014532 2.3033831 -0.30028513 61 4 1.6812914e+09
-1.4271982 2.2679219 -0.23093687 9 5 1.6812914e+09
-0.90022039 2.2335949 -0.46045235 55 2 1.6812914e+09
-1.4201853 2.2542646 -0.41696572 46 3 1.6812914e+09
-0.8791157 2.1854963 -0.62140769 63 0 1.6812914e+09
-1.3880159 2.1983941 -0.59128827 50 1 1.6812914e+09
-10.06264 25.115566 6.2284608 11 14 1.6812914e+09
-16.562101 26.136677 8.2701273 36 15 1.6812914e+09
-10.467842 26.127136 4.4423127 21 12 1.6812914e+09
nan nan nan 0 13 1.6812914e+09
-10.456478 26.125202 2.4588814 28 10 1.6812914e+09
-16.38221 26.06345 3.7701454 39 11 1.6812914e+09
-0.99346763 2.4804842 0.046030723 41 8 1.6812914e+09
-16.341957 26.05991 1.6102465 40 9 1.6812914e+09
-0.94880861 2.3711739 -0.13245711 60 6 1.6812914e+09
-1.5571692 2.4928629 -0.050699238 7 7 1.6812914e+09
-0.92261589 2.3090818 -0.30058938 60 4 1.6812914e+09
-1.4325001 2.2939925 -0.2331114 11 5 1.6812914e+09
-0.89151025 2.2344432 -0.45997617 54 2 1.6812914e+09
-1.4083704 2.252934 -0.41579118 47 3 1.6812914e+09
-0.87058979 2.1863077 -0.62076104 62 0 1.6812914e+09
-1.3751453 2.1949773 -0.58904213 47 1 1.6812914e+09
-9.952569 25.106983 6.2172303 12 14 1.6812914e+09
-16.431486 26.142004 8.2526798 35 15 1.6812914e+09
-10.260101 25.882965 4.3943152 11 12 1.6812914e+09
-16.256357 25.983959 5.9455123 34 13 1.6812914e+09
-10.266162 25.911476 2.4353492 18 10 1.6812914e+09
-16.268803 26.084686 3.7649734 38 11 1.6812914e+09
-0.98112404 2.4746404 0.045856196 41 8 1.6812914e+09
-16.224503 26.074406 1.6076297 33 9 1.6812914e+09
-0.93960804 2.3721499 -0.13232583 61 6 1.6812914e+09
-1.5497782 2.5004063 -0.050742872 19 7 1.6812914e+09
-0.91272789 2.307672 -0.29998088 60 4 1.6812914e+09
-1.4297456 2.3074384 -0.23398124 14 5 1.6812914e+09
-0.88190532 2.2329748 -0.45902383 55 2 1.6812914e+09
-1.3978873 2.2536442 -0.41500813 46 3 1.6812914e+09
-0.86295283 2.189333 -0.62076104 61 0 1.6812914e+09
-1.3661851 2.1976974 -0.58848059 46 1 1.6812914e+09
-9.8594646 25.114906 6.2110538 12 14 1.6812914e+09
-16.305063 26.132837 8.2326469 38 15 1.6812914e+09
-10.117373 25.77203 4.3697309 29 12 1.6812914e+09
-16.186937 26.064825 5.9517078 32 13 1.6812914e+09
-10.151106 25.884552 2.4294665 28 10 1.6812914e+09
-16.137161 26.075911 3.7555418 39 11 1.6812914e+09
-0.97108829 2.4732256 0.045768932 42 8 1.6812914e+09
-16.098581 26.064348 1.6037045 34 9 1.6812914e+09
-0.92991626 2.3706028 -0.13206327 61 6 1.6812914e+09
-1.5331641 2.4930375 -0.050481081 7 7 1.6812914e+09
-0.90055341 2.2991304 -0.29845968 57 4 1.6812914e+09
-1.4233941 2.314286 -0.23419867 32 5 1.6812914e+09
-0.87321359 2.2337534 -0.45854768 55 2 1.6812914e+09
-1.3861187 2.2522085 -0.41383359 47 3 1.6812914e+09
-0.85442936 2.1900821 -0.62011445 60 0 1.6812914e+09
-1.3563236 2.1980739 -0.58735758 46 1 1.6812914e+09
-9.7558594 25.108295 6.2009463 14 14 1.6812914e+09
-16.180685 26.136211 8.2158461 36 15 1.6812914e+09
-10.018409 25.784172 4.3658285 61 12 1.6812914e+09
-16.053358 26.052229 5.9359798 35 13 1.6812914e+09
-10.112086 26.038795 2.4407966 3 10 1.6812914e+09
-16.013571 26.079222 3.7479358 39 11 1.6812914e+09
-0.96154523 2.4742696 0.045725301 41 8 1.6812914e+09
-15.97749 26.07143 1.6006951 33 9 1.6812914e+09
-0.91983169 2.369179 -0.13180073 61 6 1.6812914e+09
-1.521842 2.4941108 -0.050393824 12 7 1.6812914e+09
-0.89252245 2.3022599 -0.29845968 57 4 1.6812914e+09
-1.4149022 2.3194873 -0.23419867 22 5 1.6812914e+09
-0.86541098 2.2367878 -0.45854768 54 2 1.6812914e+09
-1.374377 2.2507181 -0.41265905 48 3 1.6812914e+09
-0.84504294 2.1885438 -0.6188212 62 0 1.6812914e+09
-1.346983 2.2009549 -0.58679605 46 1 1.6812914e+09
-9.6576643 25.114908 6.1942077 14 14 1.6812914e+09
-16.046364 26.122572 8.1938744 36 15 1.6812914e+09
-9.9132805 25.779804 4.3591948 67 12 1.6812914e+09
-15.949517 26.08717 5.9312143 38 13 1.6812914e+09
nan nan nan 0 10 1.6812914e+09
-15.891448 26.084106 3.740634 36 11 1.6812914e+09
-0.95157468 2.4754434 0.04568167 41 8 1.6812914e+09
-15.846806 26.072216 1.5971625 35 9 1.6812914e+09
-0.91024852 2.370203 -0.13166945 62 6 1.6812914e+09
-1.509233 2.4929988 -0.050262928 7 7 1.6812914e+09
-0.88141775 2.298563 -0.29754698 57 4 1.6812914e+09
-1.3899864 2.2967417 -0.23137176 9 5 1.6812914e+09
-0.85409427 2.2306247 -0.45664304 55 2 1.6812914e+09
-1.3626628 2.2491734 -0.41148451 47 3 1.6812914e+09
-0.83567774 2.1869674 -0.61752796 60 0 1.6812914e+09
-1.3291467 2.189003 -0.58230382 49 1 1.6812914e+09
-9.5508299 25.111429 6.1846619 11 14 1.6812914e+09
-15.926636 26.142029 8.1815968 35 15 1.6812914e+09
-9.8108273 25.795191 4.3556828 73 12 1.6812914e+09
-15.818159 26.0867 5.9178696 38 13 1.6812914e+09
nan nan nan 0 10 1.6812914e+09
-15.763063 26.077839 3.731811 36 11 1.6812914e+09
-0.94292808 2.47875 0.04568167 41 8 1.6812914e+09
-15.723462 26.073933 1.5938915 35 9 1.6812914e+09
-0.90019888 2.3686974 -0.1314069 61 6 1.6812914e+09
-1.4953601 2.4896886 -0.050088402 11 7 1.6812914e+09
-0.87251008 2.2993052 -0.29724273 57 4 1.6812914e+09
