# .PCD v0.7 - Point Cloud Data file format
VERSION 0.7
FIELDS x y z intensity ring timestamp
SIZE 4 4 4 4 2 8
TYPE F F F F U F
COUNT 1 1 1 1 1 1
WIDTH 946
HEIGHT 1
VIEWPOINT 0 0 0 1 0 0 0
POINTS 946
DATA ascii
9.4572258 -2.7344844 -1.5554975 17 3 1.6812926e+09
5.2262082 -2.6071582 -1.5544891 17 0 1.6812926e+09
6.709702 -1.9326236 -1.6014758 18 1 1.6812926e+09
10.910015 -5.4566216 2.8037059 40 14 1.6812926e+09
14.232022 -4.0965986 3.95348 31 15 1.6812926e+09
10.9215 -5.4623814 1.9241956 41 12 1.6812926e+09
14.198687 -4.1191697 2.8643308 32 13 1.6812926e+09
10.906816 -5.4574203 1.0639538 49 10 1.6812926e+09
14.161344 -4.1324363 1.804449 35 11 1.6812926e+09
10.893374 -5.4554558 0.21204673 44 8 1.6812926e+09
14.114615 -4.1321659 0.76894605 33 9 1.6812926e+09
10.895994 -5.4615269 -0.63904977 41 6 1.6812926e+09
14.091969 -4.1308775 -0.25572136 30 7 1.6812926e+09
10.924877 -5.4831619 -1.4944282 31 4 1.6812926e+09
14.100564 -4.1334066 -1.2799381 23 5 1.6812926e+09
6.8529911 -3.4447551 -1.4813519 21 2 1.6812926e+09
9.4310341 -2.7626286 -1.5527569 17 3 1.6812926e+09
5.2019782 -2.6177819 -1.5499628 18 0 1.6812926e+09
6.7099323 -1.9580756 -1.6031604 16 1 1.6812926e+09
10.860454 -5.4793043 2.7958443 42 14 1.6812926e+09
14.138802 -4.1232891 3.931509 33 15 1.6812926e+09
10.862685 -5.480444 1.9171716 44 12 1.6812926e+09
14.10887 -4.1465869 2.8490798 39 13 1.6812926e+09
10.854351 -5.478621 1.0606854 43 10 1.6812926e+09
14.078543 -4.159008 1.795626 42 11 1.6812926e+09
10.843033 -5.477664 0.2114359 43 8 1.6812926e+09
14.033081 -4.1615558 0.76528245 35 9 1.6812926e+09
10.847902 -5.484879 -0.63734317 42 6 1.6812926e+09
14.029536 -4.1658273 -0.25484875 22 7 1.6812926e+09
10.870251 -5.503325 -1.4895604 33 4 1.6812926e+09
14.02397 -4.1641889 -1.2742844 23 5 1.6812926e+09
6.8480964 -3.4707918 -1.4827803 22 2 1.6812926e+09
9.3839388 -2.7826738 -1.5464927 16 3 1.6812926e+09
5.1928086 -2.6359243 -1.5499628 18 0 1.6812926e+09
6.7381058 -1.9918214 -1.6115834 17 1 1.6812926e+09
10.803144 -5.4954023 2.785737 41 14 1.6812926e+09
14.074088 -4.1551247 3.9172926 48 15 1.6812926e+09
10.802637 -5.4951577 1.9097574 42 12 1.6812926e+09
14.026817 -4.1730776 2.8352585 38 13 1.6812926e+09
10.819626 -5.5085649 1.0591602 42 10 1.6812926e+09
13.999746 -4.188941 1.7874116 32 11 1.6812926e+09
10.800309 -5.5011082 0.21095595 43 8 1.6812926e+09
13.961809 -4.1908607 0.76214236 38 9 1.6812926e+09
10.798516 -5.5049434 -0.63550532 42 6 1.6812926e+09
13.952666 -4.1960773 -0.25371435 13 7 1.6812926e+09
10.818791 -5.5224147 -1.4849967 33 4 1.6812926e+09
13.933751 -4.1877561 -1.2673259 25 5 1.6812926e+09
6.9386334 -3.5472035 -1.5051601 22 2 1.6812926e+09
9.3694382 -2.8139949 -1.5457096 16 3 1.6812926e+09
5.1835761 -2.6540344 -1.5499628 18 0 1.6812926e+09
6.7267957 -2.0127616 -1.6104604 22 1 1.6812926e+09
10.766557 -5.524179 2.7812448 58 14 1.6812926e+09
13.997021 -4.1855655 3.8998449 33 15 1.6812926e+09
10.746042 -5.5136638 1.9031236 54 12 1.6812926e+09
13.955766 -4.20504 2.8238204 34 13 1.6812926e+09
10.75699 -5.5216618 1.0548024 48 10 1.6812926e+09
13.923288 -4.2190928 1.7795013 31 11 1.6812926e+09
10.74547 -5.520493 0.21025786 46 8 1.6812926e+09
13.884983 -4.2207117 0.75874048 38 9 1.6812926e+09
10.743714 -5.524332 -0.63340491 42 6 1.6812926e+09
13.890106 -4.2302055 -0.25284171 15 7 1.6812926e+09
10.764153 -5.5419674 -1.4801289 35 4 1.6812926e+09
13.842063 -4.2156034 -1.2603673 24 5 1.6812926e+09
6.8476911 -3.5308933 -1.4880182 21 2 1.6812926e+09
9.3288441 -2.837357 -1.5406199 17 3 1.6812926e+09
5.1871519 -2.6787648 -1.5538425 17 0 1.6812926e+09
6.656415 -2.0183589 -1.5952991 19 1 1.6812926e+09
10.697449 -5.5359688 2.7683296 42 14 1.6812926e+09
13.938405 -4.2211137 3.8875673 33 15 1.6812926e+09
10.702608 -5.5386529 1.8988311 46 12 1.6812926e+09
13.872923 -4.2329798 2.8099992 33 13 1.6812926e+09
10.712356 -5.5484476 1.0524056 48 10 1.6812926e+09
13.844419 -4.2480354 1.7712867 34 11 1.6812926e+09
10.709631 -5.5517859 0.20995244 63 8 1.6812926e+09
13.826469 -4.2583604 0.75638539 37 9 1.6812926e+09
10.694588 -5.5487218 -0.63169831 46 6 1.6812926e+09
13.810756 -4.2587981 -0.25166368 16 7 1.6812926e+09
10.706336 -5.5619302 -1.4749568 38 4 1.6812926e+09
13.7987 -4.2550974 -1.2577579 25 5 1.6812926e+09
6.9115233 -3.5944247 -1.504684 23 2 1.6812926e+09
9.4888124 -2.922148 -1.5688092 17 3 1.6812926e+09
5.1777701 -2.6968548 -1.5538425 17 0 1.6812926e+09
6.6400118 -2.038728 -1.5930529 22 1 1.6812926e+09
10.640379 -5.5559654 2.7587836 40 14 1.6812926e+09
13.848951 -4.249526 3.8668885 40 15 1.6812926e+09
10.649405 -5.5606933 1.8929777 46 12 1.6812926e+09
13.803383 -4.2671447 2.7990375 57 13 1.6812926e+09
10.650985 -5.5638914 1.0482657 43 10 1.6812926e+09
13.777368 -4.2801561 1.7645936 59 11 1.6812926e+09
10.645887 -5.5659661 0.20907982 44 8 1.6812926e+09
13.749546 -4.2872953 0.75298357 37 9 1.6812926e+09
10.630917 -5.5628629 -0.62907279 43 6 1.6812926e+09
13.733763 -4.2876329 -0.25052929 15 7 1.6812926e+09
10.664878 -5.587749 -1.4719143 37 4 1.6812926e+09
13.717191 -4.2824774 -1.251669 26 5 1.6812926e+09
6.9337053 -3.6367757 -1.5123026 24 2 1.6812926e+09
9.5021296 -2.9625907 -1.5727242 17 3 1.6812926e+09
5.155499 -2.7081699 -1.5499628 18 0 1.6812926e+09
6.6351819 -2.0626152 -1.5936145 19 1 1.6812926e+09
10.585253 -5.5719237 2.7492378 44 14 1.6812926e+09
13.786344 -4.2804046 3.8533182 41 15 1.6812926e+09
10.602502 -5.5810204 1.8879048 43 12 1.6812926e+09
13.718882 -4.2909398 2.7847397 33 13 1.6812926e+09
10.609466 -5.5894251 1.0460868 42 10 1.6812926e+09
13.70316 -4.3096294 1.7569876 33 11 1.6812926e+09
10.600838 -5.5872493 0.20855625 42 8 1.6812926e+09
13.682868 -4.31636 0.75010502 38 9 1.6812926e+09
10.594748 -5.5887651 -0.62802261 41 6 1.6812926e+09
13.666269 -4.3189917 -0.24956939 14 7 1.6812926e+09
10.61338 -5.6056957 -1.4673508 34 4 1.6812926e+09
13.664912 -4.3159523 -1.2481898 26 5 1.6812926e+09
7.0099039 -3.7080257 -1.5318254 23 2 1.6812926e+09
9.4611158 -2.9860947 -1.5676346 17 3 1.6812926e+09
5.2121572 -2.761215 -1.5700082 21 0 1.6812926e+09
6.6213317 -2.0824187 -1.5919298 19 1 1.6812926e+09
10.548525 -5.5996985 2.7447453 42 14 1.6812926e+09
13.709105 -4.3089695 3.8358705 32 15 1.6812926e+09
10.558967 -5.6052566 1.8836124 43 12 1.6812926e+09
13.645323 -4.3203011 2.7728248 31 13 1.6812926e+09
10.56008 -5.6082182 1.0430363 41 10 1.6812926e+09
13.636008 -4.3408928 1.7502942 35 11 1.6812926e+09
10.548164 -5.6066165 0.20790178 46 8 1.6812926e+09
13.608253 -4.3451295 0.74683404 35 9 1.6812926e+09
10.531096 -5.6022568 -0.62539709 44 6 1.6812926e+09
13.593967 -4.3484106 -0.24852225 14 7 1.6812926e+09
10.565278 -5.6275406 -1.4633956 35 4 1.6812926e+09
13.582575 -4.3447833 -1.2421011 26 5 1.6812926e+09
7.0142393 -3.7417176 -1.5356348 21 2 1.6812926e+09
9.3400717 -2.9838378 -1.5492333 17 3 1.6812926e+09
5.1577635 -2.7554817 -1.556429 17 0 1.6812926e+09
6.6299071 -2.1118379 -1.5958606 22 1 1.6812926e+09
10.494554 -5.6180844 2.7357609 47 14 1.6812926e+09
13.638741 -4.3392425 3.8203619 34 15 1.6812926e+09
10.502329 -5.6222625 1.8769785 48 12 1.6812926e+09
13.581074 -4.3521934 2.7628162 32 13 1.6812926e+09
10.497748 -5.6245317 1.0388964 42 10 1.6812926e+09
13.556995 -4.3679399 1.7420797 38 11 1.6812926e+09
10.492301 -5.6263342 0.20720367 42 8 1.6812926e+09
13.528093 -4.3742595 0.74330139 39 9 1.6812926e+09
10.481897 -5.6254659 -0.62369049 43 6 1.6812926e+09
13.500219 -4.3704553 -0.24708243 13 7 1.6812926e+09
10.518354 -5.6521273 -1.4597448 33 4 1.6812926e+09
13.519933 -4.3768425 -1.237752 24 5 1.6812926e+09
6.9276586 -3.7266321 -1.5194452 21 2 1.6812926e+09
9.2168112 -2.980015 -1.5304404 16 3 1.6812926e+09
5.1034746 -2.749403 -1.5428499 17 0 1.6812926e+09
6.6085801 -2.1304922 -1.5924914 21 1 1.6812926e+09
10.443886 -5.6403003 2.7278996 46 14 1.6812926e+09
13.558377 -4.3684859 3.8022683 46 15 1.6812926e+09
10.464272 -5.6513276 1.8738568 52 12 1.6812926e+09
13.518341 -4.386807 2.7532845 58 13 1.6812926e+09
10.467096 -5.65522 1.037807 56 10 1.6812926e+09
13.503916 -4.4029408 1.7372118 57 11 1.6812926e+09
10.452809 -5.6522217 0.206811 56 8 1.6812926e+09
13.45579 -4.4028397 0.74016124 40 9 1.6812926e+09
10.42707 -5.6430035 -0.62159008 51 6 1.6812926e+09
13.449246 -4.4058924 -0.24642797 25 7 1.6812926e+09
10.461473 -5.6687064 -1.4545727 32 4 1.6812926e+09
13.445396 -4.404645 -1.2323157 25 5 1.6812926e+09
6.9469628 -3.7683511 -1.5265875 21 2 1.6812926e+09
9.1758394 -3.002202 -1.5253507 17 3 1.6812926e+09
5.0683866 -2.7533598 -1.5350904 17 0 1.6812926e+09
6.5941544 -2.1512854 -1.5908068 21 1 1.6812926e+09
10.397311 -5.6597576 2.7205999 43 14 1.6812926e+09
13.484108 -4.3939877 3.7854667 32 15 1.6812926e+09
10.408606 -5.6659217 1.8672229 43 12 1.6812926e+09
13.443086 -4.4117346 2.7408929 31 13 1.6812926e+09
10.396994 -5.6643114 1.0327955 44 10 1.6812926e+09
13.415405 -4.4259744 1.7277803 34 11 1.6812926e+09
10.390118 -5.6629224 0.20593838 44 8 1.6812926e+09
13.388964 -4.4301996 0.73728275 38 9 1.6812926e+09
10.384192 -5.6643949 -0.62014604 42 6 1.6812926e+09
13.383954 -4.4363127 -0.24551173 33 7 1.6812926e+09
10.418666 -5.6902795 -1.4512261 33 4 1.6812926e+09
13.371606 -4.429647 -1.2268792 26 5 1.6812926e+09
6.9143906 -3.7819741 -1.5223022 19 2 1.6812926e+09
9.0926266 -3.0101919 -1.5132136 19 3 1.6812926e+09
5.0502734 -2.7663915 -1.5325038 18 0 1.6812926e+09
6.5638437 -2.1655235 -1.5851916 23 1 1.6812926e+09
10.34973 -5.6807737 2.7133 42 14 1.6812926e+09
13.420518 -4.4251642 3.7718964 32 15 1.6812926e+09
10.360625 -5.6867695 1.86215 42 12 1.6812926e+09
13.381017 -4.4431806 2.7313609 33 13 1.6812926e+09
10.369423 -5.6939626 1.031924 43 10 1.6812926e+09
13.348087 -4.4555078 1.7210872 35 11 1.6812926e+09
10.354953 -5.6907268 0.20563295 46 8 1.6812926e+09
13.316595 -4.4579067 0.7341426 35 9 1.6812926e+09
10.338109 -5.6861668 -0.61857074 43 6 1.6812926e+09
13.324132 -4.4655933 -0.24468271 40 7 1.6812926e+09
10.359618 -5.7050614 -1.4457498 34 4 1.6812926e+09
13.308828 -4.4604821 -1.2225301 32 5 1.6812926e+09
6.8710637 -3.7894869 -1.5156358 22 2 1.6812926e+09
9.1031399 -3.0489604 -1.5167373 19 3 1.6812926e+09
5.0537548 -2.7901309 -1.5363837 17 0 1.6812926e+09
6.5146413 -2.1745665 -1.5750841 22 1 1.6812926e+09
10.293606 -5.6968069 2.7037539 41 14 1.6812926e+09
13.340837 -4.4506059 3.7538028 32 15 1.6812926e+09
10.310468 -5.7061558 1.8566868 46 12 1.6812926e+09
13.30726 -4.4703436 2.7194462 37 13 1.6812926e+09
10.303732 -5.7047834 1.0273483 43 10 1.6812926e+09
13.278374 -4.4838328 1.7140896 40 11 1.6812926e+09
10.293489 -5.7038126 0.20480397 44 8 1.6812926e+09
13.246558 -4.4859619 0.73113328 37 9 1.6812926e+09
10.278902 -5.7004189 -0.61620778 43 6 1.6812926e+09
13.25401 -4.4936342 -0.24367921 50 7 1.6812926e+09
10.313608 -5.7267294 -1.4420989 33 4 1.6812926e+09
13.260152 -4.4957271 -1.2194858 38 5 1.6812926e+09
6.8213344 -3.7931635 -1.5075409 19 2 1.6812926e+09
9.1743059 -3.1084111 -1.5304404 18 3 1.6812926e+09
5.0693007 -2.821857 -1.5441432 16 0 1.6812926e+09
6.4308267 -2.1716254 -1.5565537 25 1 1.6812926e+09
10.246006 -5.7172685 2.6964543 43 14 1.6812926e+09
13.288605 -4.4848022 3.7434635 50 15 1.6812926e+09
10.264611 -5.7276683 1.8520042 44 12 1.6812926e+09
13.233476 -4.4970455 2.7075312 55 13 1.6812926e+09
10.264185 -5.7297873 1.0253873 42 10 1.6812926e+09
13.210975 -4.5125265 1.7073964 54 11 1.6812926e+09
10.249513 -5.7262945 0.20432404 43 8 1.6812926e+09
13.178853 -4.5143924 0.7282548 39 9 1.6812926e+09
10.23933 -5.7252951 -0.6150263 42 6 1.6812926e+09
13.188586 -4.5228601 -0.24276297 72 7 1.6812926e+09
10.269739 -5.7493582 -1.4387522 35 4 1.6812926e+09
13.18312 -4.5210004 -1.213832 35 5 1.6812926e+09
6.7973495 -3.8109479 -1.5051601 21 2 1.6812926e+09
9.1820879 -3.1468115 -1.5335726 16 3 1.6812926e+09
5.0509982 -2.834805 -1.5415567 17 0 1.6812926e+09
6.4739361 -2.2113495 -1.5689073 23 1 1.6812926e+09
10.192018 -5.733882 2.6874697 49 14 1.6812926e+09
13.208865 -4.509336 3.7253697 33 15 1.6812926e+09
10.201516 -5.7392416 1.8441997 52 12 1.6812926e+09
13.164311 -4.5248814 2.6965697 33 13 1.6812926e+09
10.21157 -5.7472539 1.022119 48 10 1.6812926e+09
13.141192 -4.5399957 1.7003988 34 11 1.6812926e+09
10.201153 -5.7460856 0.20375684 44 8 1.6812926e+09
13.118188 -4.5448542 0.7257688 37 9 1.6812926e+09
10.188839 -5.7438335 -0.61318845 43 6 1.6812926e+09
13.123119 -4.5516844 -0.24184671 37 7 1.6812926e+09
10.219357 -5.7680907 -1.4344928 34 4 1.6812926e+09
13.127252 -4.5531297 -1.2101352 29 5 1.6812926e+09
6.7818694 -3.8334436 -1.504684 21 2 1.6812926e+09
9.2573824 -3.2087231 -1.5480587 16 3 1.6812926e+09
5.0032458 -2.8310006 -1.5299174 19 0 1.6812926e+09
6.4431472 -2.2259948 -1.563292 29 1 1.6812926e+09
10.15287 -5.758604 2.682416 43 14 1.6812926e+09
13.142818 -4.5380921 3.7111533 31 15 1.6812926e+09
10.159944 -5.7626309 1.8402975 44 12 1.6812926e+09
13.10207 -4.5547042 2.6870377 32 13 1.6812926e+09
10.169787 -5.7705703 1.01994 50 10 1.6812926e+09
13.076066 -4.5686679 1.6940098 34 11 1.6812926e+09
10.154951 -5.7668428 0.20323326 60 8 1.6812926e+09
13.057471 -4.5749474 0.72328287 35 9 1.6812926e+09
10.147024 -5.7670255 -0.61187571 54 6 1.6812926e+09
13.059171 -4.5832129 -0.24097408 38 7 1.6812926e+09
10.168969 -5.7865419 -1.4302335 33 4 1.6812926e+09
13.065822 -4.5855575 -1.2060037 29 5 1.6812926e+09
6.8388042 -3.8972085 -1.5203974 21 2 1.6812926e+09
9.2111664 -3.2287822 -1.5421859 16 3 1.6812926e+09
4.969768 -2.8361456 -1.5228045 19 0 1.6812926e+09
6.4648471 -2.260026 -1.5705918 22 1 1.6812926e+09
10.100988 -5.7758656 2.6739931 47 14 1.6812926e+09
13.081291 -4.5680327 3.6982291 32 15 1.6812926e+09
10.107614 -5.7796693 1.834444 44 12 1.6812926e+09
13.032834 -4.5817094 2.6760762 35 13 1.6812926e+09
10.113986 -5.7880077 1.0164539 44 10 1.6812926e+09
13.003879 -4.5944629 1.686708 39 11 1.6812926e+09
10.101213 -5.7853851 0.2025788 44 8 1.6812926e+09
12.991195 -4.6052737 0.72053528 40 9 1.6812926e+09
10.091167 -5.7843084 -0.6097753 43 6 1.6812926e+09
12.988906 -4.6095605 -0.23997058 42 7 1.6812926e+09
10.119717 -5.8077135 -1.4262782 35 4 1.6812926e+09
13.005136 -4.6153269 -1.201872 27 5 1.6812926e+09
6.8506923 -3.9357328 -1.5261115 19 2 1.6812926e+09
9.1532869 -3.2444394 -1.5343556 16 3 1.6812926e+09
4.9765811 -2.8631155 -1.5279775 19 0 1.6812926e+09
6.5028667 -2.2987864 -1.5818224 21 1 1.6812926e+09
10.05443 -5.7982407 2.6672547 43 14 1.6812926e+09
13.000694 -4.5934415 3.6801353 48 15 1.6812926e+09
10.060696 -5.8018694 1.8297614 44 12 1.6812926e+09
12.965079 -4.6113696 2.6655912 54 13 1.6812926e+09
10.072151 -5.8108287 1.014275 42 10 1.6812926e+09
12.938684 -4.6223125 1.680319 54 11 1.6812926e+09
10.04849 -5.8018565 0.20192432 42 8 1.6812926e+09
12.935082 -4.6362858 0.71831095 47 9 1.6812926e+09
10.049299 -5.807003 -0.60846251 43 6 1.6812926e+09
12.939795 -4.643064 -0.23935975 52 7 1.6812926e+09
10.07361 -5.8280878 -1.4226274 35 4 1.6812926e+09
12.9444 -4.6447277 -1.1977403 29 5 1.6812926e+09
6.7795782 -3.9264004 -1.5132549 19 2 1.6812926e+09
9.083786 -3.2555723 -1.5245676 17 3 1.6812926e+09
4.9686456 -2.8816819 -1.5286242 19 0 1.6812926e+09
6.4351444 -2.3001933 -1.5672227 19 1 1.6812926e+09
10.011979 -5.8180838 2.661078 42 14 1.6812926e+09
12.953544 -4.6251693 3.6710885 34 15 1.6812926e+09
10.017917 -5.8215489 1.8254689 44 12 1.6812926e+09
12.8989 -4.6360941 2.6551061 34 13 1.6812926e+09
10.010905 -5.8221555 1.0101351 46 10 1.6812926e+09
12.859449 -4.6447101 1.6721045 35 11 1.6812926e+09
9.996789 -5.8162856 0.20126985 44 8 1.6812926e+09
12.858598 -4.6570721 0.71490914 35 9 1.6812926e+09
9.995471 -5.8201904 -0.6063621 43 6 1.6812926e+09
12.848305 -4.6609511 -0.23796354 39 7 1.6812926e+09
10.03065 -5.8477097 -1.4192808 35 4 1.6812926e+09
12.872727 -4.6672726 -1.1925215 29 5 1.6812926e+09
6.7849035 -3.9611824 -1.5175405 22 2 1.6812926e+09
9.0839758 -3.2914608 -1.5265253 16 3 1.6812926e+09
4.9710622 -2.9063246 -1.5325038 19 0 1.6812926e+09
6.4366484 -2.3248243 -1.5694687 18 1 1.6812926e+09
9.9684877 -5.8394475 2.654901 43 14 1.6812926e+09
12.882796 -4.6506953 3.6555798 35 15 1.6812926e+09
9.9655762 -5.8377557 1.8196155 44 12 1.6812926e+09
12.834195 -4.6635065 2.6450975 31 13 1.6812926e+09
9.9829493 -5.8502831 1.0092635 43 10 1.6812926e+09
12.81052 -4.6776648 1.6678451 34 11 1.6812926e+09
9.9656458 -5.8448215 0.20105171 43 8 1.6812926e+09
12.802404 -4.6873493 0.71268481 35 9 1.6812926e+09
9.9492598 -5.8398767 -0.60478681 44 6 1.6812926e+09
12.787363 -4.6894345 -0.23713456 37 7 1.6812926e+09
9.9759493 -5.8625665 -1.414413 34 4 1.6812926e+09
12.811101 -4.698144 -1.1883898 30 5 1.6812926e+09
6.7668052 -3.9823513 -1.5165881 24 2 1.6812926e+09
8.9982252 -3.2960091 -1.5139967 17 3 1.6812926e+09
4.9296851 -2.9052582 -1.5228045 18 0 1.6812926e+09
6.4189296 -2.3450627 -1.5672227 19 1 1.6812926e+09
9.9207764 -5.8581014 2.6476011 51 14 1.6812926e+09
12.821105 -4.6790934 3.6426556 37 15 1.6812926e+09
9.9238777 -5.8599467 1.8157133 51 12 1.6812926e+09
12.762543 -4.6879883 2.6336591 30 13 1.6812926e+09
9.9249935 -5.8652873 1.0055593 50 10 1.6812926e+09
12.724269 -4.6966 1.658718 39 11 1.6812926e+09
9.9097366 -5.8609438 0.20035361 46 8 1.6812926e+09
12.731283 -4.7143197 0.70967555 41 9 1.6812926e+09
9.9020109 -5.8610406 -0.60321152 46 6 1.6812926e+09
12.721692 -4.7158141 -0.2362183 40 7 1.6812926e+09
9.9373188 -5.8889685 -1.4119791 35 4 1.6812926e+09
12.743242 -4.7238078 -1.1836058 31 5 1.6812926e+09
6.7528634 -4.0059471 -1.5165881 21 2 1.6812926e+09
9.0121412 -3.3368175 -1.5183034 17 3 1.6812926e+09
4.9340448 -2.9310863 -1.5273309 18 0 1.6812926e+09
6.4015617 -2.3640852 -1.5649766 22 1 1.6812926e+09
9.8699379 -5.8769708 2.6397398 44 14 1.6812926e+09
12.747221 -4.7051663 3.6265004 43 15 1.6812926e+09
9.8683882 -5.8760619 1.8094697 44 12 1.6812926e+09
12.701559 -4.7185106 2.624604 56 13 1.6812926e+09
9.8766479 -5.8833237 1.0027268 47 10 1.6812926e+09
12.681394 -4.7336679 1.6553713 59 11 1.6812926e+09
9.8741894 -5.886538 0.20004819 60 8 1.6812926e+09
12.670321 -4.7421193 0.70718956 57 9 1.6812926e+09
9.8557663 -5.8802147 -0.60163617 50 6 1.6812926e+09
12.665354 -4.7452965 -0.23547657 57 7 1.6812926e+09
9.8868809 -5.9058003 -1.4077197 37 4 1.6812926e+09
12.675361 -4.7490549 -1.1788218 33 5 1.6812926e+09
6.7318182 -4.0268903 -1.5151596 22 2 1.6812926e+09
9.0437946 -3.386256 -1.5257422 18 3 1.6812926e+09
4.9030681 -2.935879 -1.5208646 17 0 1.6812926e+09
6.4001188 -2.3889675 -1.5666611 23 1 1.6812926e+09
9.8222113 -5.8950858 2.6324399 43 14 1.6812926e+09
12.708091 -4.7411995 3.6200385 44 15 1.6812926e+09
9.8224125 -5.8952208 1.804787 48 12 1.6812926e+09
12.632161 -4.7429957 2.6136425 38 13 1.6812926e+09
9.8368349 -5.9062228 1.0007658 43 10 1.6812926e+09
12.599777 -4.7534032 1.6468525 39 11 1.6812926e+09
9.8235874 -5.9029403 0.19943736 44 8 1.6812926e+09
12.592968 -4.7633739 0.70378774 39 9 1.6812926e+09
9.8095093 -5.8991394 -0.60006088 43 6 1.6812926e+09
12.585588 -4.7655997 -0.23429853 40 7 1.6812926e+09
9.8364449 -5.9223523 -1.4034603 35 4 1.6812926e+09
12.607457 -4.7738853 -1.1740377 30 5 1.6812926e+09
6.7177205 -4.0503635 -1.5151596 22 2 1.6812926e+09
9.0134411 -3.4108219 -1.5226101 17 3 1.6812926e+09
4.8886561 -2.950479 -1.5195714 17 0 1.6812926e+09
6.371222 -2.4035687 -1.5616075 21 1 1.6812926e+09
9.7786474 -5.9154615 2.6262634 43 14 1.6812926e+09
12.623661 -4.7599912 3.6006522 38 15 1.6812926e+09
9.7785349 -5.9154081 1.8004946 43 12 1.6812926e+09
12.576516 -4.7722735 2.6055403 41 13 1.6812926e+09
9.7927237 -5.9263358 0.99836904 43 10 1.6812926e+09
12.537563 -4.777503 1.6407678 34 11 1.6812926e+09
9.7815447 -5.924243 0.19900106 43 8 1.6812926e+09
12.529618 -4.7894897 0.70117098 39 9 1.6812926e+09
9.7632399 -5.9178123 -0.59848559 43 6 1.6812926e+09
12.529184 -4.7943306 -0.23355682 34 7 1.6812926e+09
9.7881384 -5.9399118 -1.3995053 37 4 1.6812926e+09
12.546516 -4.8009686 -1.1699061 31 5 1.6812926e+09
6.7063489 -4.0738931 -1.5156358 22 2 1.6812926e+09
8.8890457 -3.3975511 -1.5034257 21 3 1.6812926e+09
4.892767 -2.9763157 -1.5240978 18 0 1.6812926e+09
6.3810081 -2.4327238 -1.5660996 19 1 1.6812926e+09
9.7360964 -5.933907 2.6200864 43 14 1.6812926e+09
12.542349 -4.7769222 3.5819123 39 15 1.6812926e+09
9.7377806 -5.934948 1.7965922 42 12 1.6812926e+09
12.505615 -4.7928929 2.5941019 38 13 1.6812926e+09
9.7422132 -5.9423227 0.99531859 48 10 1.6812926e+09
12.483755 -4.8069849 1.6358999 38 11 1.6812926e+09
9.7277098 -5.9358101 0.19830297 46 8 1.6812926e+09
12.457763 -4.809453 0.69803077 32 9 1.6812926e+09
9.7137365 -5.9319348 -0.59664774 44 6 1.6812926e+09
12.463408 -4.8191223 -0.23264056 39 7 1.6812926e+09
9.7345171 -5.9516239 -1.3946373 37 4 1.6812926e+09
12.488707 -4.8264022 -1.1659919 31 5 1.6812926e+09
6.694181 -4.0985594 -1.516112 22 2 1.6812926e+09
8.9162951 -3.4436634 -1.5100815 19 3 1.6812926e+09
4.8926392 -2.9996905 -1.5273309 18 0 1.6812926e+09
6.3706317 -2.4529967 -1.565538 22 1 1.6812926e+09
9.6904173 -5.9525514 2.613348 46 14 1.6812926e+09
12.489532 -4.8068075 3.571573 33 15 1.6812926e+09
9.693862 -5.9546824 1.7922999 46 12 1.6812926e+09
12.443032 -4.8188066 2.5845702 35 13 1.6812926e+09
9.6991167 -5.9602499 0.99292183 43 10 1.6812926e+09
12.418328 -4.8316531 1.6295108 37 11 1.6812926e+09
9.6877689 -5.9579415 0.19791028 44 8 1.6812926e+09
12.406005 -4.8393121 0.69606817 38 9 1.6812926e+09
9.6802139 -5.9579525 -0.59586006 43 6 1.6812926e+09
12.392953 -4.8416958 -0.23163706 40 7 1.6812926e+09
9.6967831 -5.9751496 -1.3922035 38 4 1.6812926e+09
12.419891 -4.8522229 -1.1612079 30 5 1.6812926e+09
6.6819215 -4.1231914 -1.5165881 23 2 1.6812926e+09
9.1020756 -3.5518668 -1.5437521 18 3 1.6812926e+09
4.8739228 -3.0116706 -1.5247444 22 0 1.6812926e+09
6.3593273 -2.4754477 -1.5649766 22 1 1.6812926e+09
9.6530104 -5.9760795 2.6088557 54 14 1.6812926e+09
12.436658 -4.8363824 3.5612338 39 15 1.6812926e+09
9.6457253 -5.9715819 1.7872269 55 12 1.6812926e+09
12.428421 -4.8631048 2.5850465 40 13 1.6812926e+09
9.6539192 -5.9813256 0.99052501 47 10 1.6812926e+09
12.410626 -4.8786001 1.6307278 46 11 1.6812926e+09
9.6425009 -5.9789166 0.19743034 50 8 1.6812926e+09
12.402123 -4.8902397 0.69685322 46 9 1.6812926e+09
9.6243744 -5.9723253 -0.59375966 46 6 1.6812926e+09
12.401554 -4.8950114 -0.23211698 44 7 1.6812926e+09
9.6389894 -5.9883838 -1.3870314 39 4 1.6812926e+09
12.358856 -4.8781881 -1.1570764 30 5 1.6812926e+09
6.6654048 -4.1451941 -1.516112 22 2 1.6812926e+09
9.0298862 -3.5600989 -1.5335726 17 3 1.6812926e+09
4.861331 -3.0273883 -1.5240978 19 0 1.6812926e+09
6.3325062 -2.4905102 -1.5604843 19 1 1.6812926e+09
9.5979815 -5.9907761 2.5998714 44 14 1.6812926e+09
12.459311 -4.8978229 3.5728652 43 15 1.6812926e+09
9.59445 -5.9885859 1.7817638 46 12 1.6812926e+09
12.437903 -4.9194469 2.590766 42 13 1.6812926e+09
9.6118593 -6.0017948 0.98834616 44 10 1.6812926e+09
12.41428 -4.9301276 1.633466 40 11 1.6812926e+09
9.5961361 -5.9966383 0.19690676 52 8 1.6812926e+09
12.429049 -4.9510403 0.69933915 40 9 1.6812926e+09
9.5865364 -5.9952912 -0.59270942 46 6 1.6812926e+09
12.42387 -4.9539967 -0.23285872 42 7 1.6812926e+09
9.6075125 -6.0154076 -1.3855101 38 4 1.6812926e+09
12.293166 -4.9019437 -1.1525098 31 5 1.6812926e+09
6.6488152 -4.1671309 -1.5156358 22 2 1.6812926e+09
8.9371023 -3.5596578 -1.5198694 17 3 1.6812926e+09
4.8466434 -3.0417702 -1.5228045 19 0 1.6812926e+09
6.2671595 -2.4901502 -1.5464462 21 1 1.6812926e+09
9.5533171 -6.0070066 2.5931332 44 14 1.6812926e+09
12.463204 -4.9471245 3.5786812 23 15 1.6812926e+09
9.5619965 -6.0124807 1.7794224 44 12 1.6812926e+09
12.426079 -4.9624834 2.5917189 2 13 1.6812926e+09
9.5571289 -6.0140815 0.98485994 44 10 1.6812926e+09
12.403906 -4.9762011 1.6343787 7 11 1.6812926e+09
9.5444717 -6.0084472 0.1962523 44 8 1.6812926e+09
12.410247 -4.9912987 0.69920832 4 9 1.6812926e+09
9.5370331 -6.0084133 -0.59087157 44 6 1.6812926e+09
12.406501 -4.997334 -0.23285872 9 7 1.6812926e+09
9.5518351 -6.0247245 -1.3803381 38 4 1.6812926e+09
12.239872 -4.9278131 -1.1490306 32 5 1.6812926e+09
6.6363034 -4.1916261 -1.516112 22 2 1.6812926e+09
8.8833828 -3.5742624 -1.5128222 17 3 1.6812926e+09
4.838037 -3.0599613 -1.5234511 19 0 1.6812926e+09
6.2339902 -2.5009587 -1.5402694 22 1 1.6812926e+09
9.5034838 -6.0220571 2.5852716 43 14 1.6812926e+09
12.457069 -4.9950891 3.5819123 1 15 1.6812926e+09
9.5054941 -6.0233469 1.7727888 44 12 1.6812926e+09
12.429167 -5.0140848 2.5960083 1 13 1.6812926e+09
9.5118923 -6.029736 0.98224521 44 10 1.6812926e+09
nan nan nan 0 11 1.6812926e+09
9.512887 -6.0350308 0.19603415 43 8 1.6812926e+09
12.550054 -5.0984311 0.70810544 1 9 1.6812926e+09
9.4928198 -6.0269446 -0.58942753 42 6 1.6812926e+09
nan nan nan 0 7 1.6812926e+09
9.5119019 -6.0460467 -1.3776 38 4 1.6812926e+09
12.173277 -4.9529471 -1.1444639 30 5 1.6812926e+09
6.609211 -4.2068553 -1.5132549 22 2 1.6812926e+09
9.0836267 -3.6916051 -1.5492333 17 3 1.6812926e+09
4.8354707 -3.0820248 -1.5260377 18 0 1.6812926e+09
6.2225237 -2.5228767 -1.5397079 22 1 1.6812926e+09
9.4639282 -6.0433908 2.5802181 44 14 1.6812926e+09
nan nan nan 0 15 1.6812926e+09
9.4636011 -6.0431967 1.7688863 43 12 1.6812926e+09
nan nan nan 0 13 1.6812926e+09
9.4645472 -6.0484614 0.97963053 48 10 1.6812926e+09
nan nan nan 0 11 1.6812926e+09
9.4591198 -6.0496502 0.19537967 44 8 1.6812926e+09
12.399621 -5.0903964 0.70064759 1 9 1.6812926e+09
9.4433346 -6.0441971 -0.58772099 44 6 1.6812926e+09
nan nan nan 0 7 1.6812926e+09
9.4646082 -6.0648003 -1.3739491 37 4 1.6812926e+09
12.116747 -4.979331 -1.1407672 31 5 1.6812926e+09
6.6130753 -4.2418299 -1.5175405 22 2 1.6812926e+09
8.7325583 -3.5846829 -1.4912888 19 3 1.6812926e+09
4.8246827 -3.0988853 -1.5260377 17 0 1.6812926e+09
6.2159348 -2.5455039 -1.5402694 24 1 1.6812926e+09
9.4232807 -6.0661669 2.5751643 46 14 1.6812926e+09
nan nan nan 0 15 1.6812926e+09
9.4164743 -6.0617986 1.7642037 46 12 1.6812926e+09
nan nan nan 0 13 1.6812926e+09
9.4224415 -6.0679746 0.97745168 44 10 1.6812926e+09
nan nan nan 0 11 1.6812926e+09
9.4148359 -6.0677333 0.19489974 44 8 1.6812926e+09
nan nan nan 0 9 1.6812926e+09
9.4053965 -6.0662951 -0.58667076 44 6 1.6812926e+09
nan nan nan 0 7 1.6812926e+09
9.4225359 -6.0843372 -1.3709066 38 4 1.6812926e+09
12.046377 -4.9996567 -1.1357658 31 5 1.6812926e+09
6.5809989 -4.2553749 -1.5137311 21 2 1.6812926e+09
8.7444544 -3.6270597 -1.4955955 19 3 1.6812926e+09
4.809782 -3.1130819 -1.5247444 17 0 1.6812926e+09
6.2678099 -2.5922828 -1.5554305 19 1 1.6812926e+09
9.3836565 -6.0870891 2.5701106 51 14 1.6812926e+09
nan nan nan 0 15 1.6812926e+09
9.3724718 -6.079845 1.7599112 51 12 1.6812926e+09
43.437748 -18.050829 9.1282082 1 13 1.6812926e+09
9.3824034 -6.088624 0.97549069 46 10 1.6812926e+09
12.243007 -5.1137857 1.6225133 1 11 1.6812926e+09
9.3663483 -6.0828567 0.19433253 51 8 1.6812926e+09
nan nan nan 0 9 1.6812926e+09
9.3548594 -6.0800381 -0.58483291 46 6 1.6812926e+09
12.174121 -5.1024895 -0.22980455 1 7 1.6812926e+09
9.3721256 -6.0982389 -1.3666472 37 4 1.6812926e+09
12.003582 -5.0310941 -1.1333737 31 5 1.6812926e+09
6.5784402 -4.2863626 -1.5165881 21 2 1.6812926e+09
8.7135162 -3.6499379 -1.4924632 16 3 1.6812926e+09
4.7867527 -3.121933 -1.5208646 18 0 1.6812926e+09
6.2519774 -2.6113334 -1.5537461 21 1 1.6812926e+09
9.3317661 -6.0998077 2.5616875 44 14 1.6812926e+09
12.307198 -5.138154 3.5592952 1 15 1.6812926e+09
9.3387899 -6.1044159 1.7575698 47 12 1.6812926e+09
43.478573 -18.246019 9.1501312 4 13 1.6812926e+09
9.3444176 -6.1104302 0.97374755 50 10 1.6812926e+09
12.132221 -5.1148658 1.6100395 1 11 1.6812926e+09
9.3262358 -6.1031938 0.19393986 56 8 1.6812926e+09
12.154752 -5.1393313 0.68978786 1 9 1.6812926e+09
9.3189621 -6.1030793 -0.58391398 56 6 1.6812926e+09
12.110191 -5.1254845 -0.22893192 1 7 1.6812926e+09
9.3300323 -6.1173081 -1.3636049 37 4 1.6812926e+09
11.940069 -5.0535655 -1.1290246 32 5 1.6812926e+09
6.5580354 -4.3041124 -1.5151596 21 2 1.6812926e+09
8.1531591 -3.4473546 -1.3981076 32 3 1.6812926e+09
4.773808 -3.137296 -1.520218 18 0 1.6812926e+09
6.2158809 -2.6217985 -1.5470077 19 1 1.6812926e+09
9.2911434 -6.1173201 2.5560722 46 14 1.6812926e+09
12.145412 -5.118031 3.517292 1 15 1.6812926e+09
9.2896261 -6.1163349 1.7521067 46 12 1.6812926e+09
43.548901 -18.445601 9.1777735 1 13 1.6812926e+09
9.2939205 -6.1238227 0.9706971 46 10 1.6812926e+09
12.054922 -5.1319342 1.6021292 1 11 1.6812926e+09
9.2829914 -6.1189504 0.19345991 46 8 1.6812926e+09
12.064151 -5.1482778 0.685601 2 9 1.6812926e+09
9.2653313 -6.1119471 -0.58181357 43 6 1.6812926e+09
12.108318 -5.1745963 -0.22923733 2 7 1.6812926e+09
9.2869215 -6.1331687 -1.3602582 38 4 1.6812926e+09
11.877433 -5.0735822 -1.1246755 33 5 1.6812926e+09
6.5470653 -4.3296866 -1.516112 22 2 1.6812926e+09
8.9315052 -3.8127768 -1.5343556 15 3 1.6812926e+09
4.7547755 -3.1486049 -1.5176315 17 0 1.6812926e+09
6.1331625 -2.6109593 -1.5284773 21 1 1.6812926e+09
9.2392864 -6.129509 2.5476494 44 14 1.6812926e+09
12.129695 -5.1613402 3.5179381 1 15 1.6812926e+09
9.2579317 -6.1418972 1.7501556 44 12 1.6812926e+09
44.477131 -19.022026 9.387475 1 13 1.6812926e+09
9.2445145 -6.1353245 0.96764666 43 10 1.6812926e+09
11.998174 -5.1573372 1.5969571 2 11 1.6812926e+09
9.2386732 -6.1361012 0.19297998 44 8 1.6812926e+09
12.014004 -5.1765394 0.68376923 2 9 1.6812926e+09
9.2231512 -6.1304293 -0.58050078 47 6 1.6812926e+09
12.177407 -5.2544322 -0.23089533 7 7 1.6812926e+09
9.2509956 -6.1559234 -1.3581285 38 4 1.6812926e+09
11.826738 -5.1032782 -1.1216311 30 5 1.6812926e+09
6.5217013 -4.3457074 -1.5137311 23 2 1.6812926e+09
8.9680367 -3.8654087 -1.542969 17 3 1.6812926e+09
4.7457638 -3.1665239 -1.5182781 17 0 1.6812926e+09
6.0586309 -2.605556 -1.5121931 22 1 1.6812926e+09
9.1915083 -6.1441193 2.5403495 43 14 1.6812926e+09
35.080849 -15.062519 10.206157 2 15 1.6812926e+09
9.1974344 -6.1480966 1.7427415 48 12 1.6812926e+09
44.563671 -19.243307 9.4198828 1 13 1.6812926e+09
9.2012653 -6.155314 0.96546769 44 10 1.6812926e+09
11.941395 -5.1824064 1.5917851 2 11 1.6812926e+09
9.1891212 -6.1518393 0.19241276 44 8 1.6812926e+09
11.907948 -5.1827083 0.6787973 2 9 1.6812926e+09
9.1778078 -6.1489034 -0.5790568 44 6 1.6812926e+09
12.172745 -5.3028922 -0.23115711 8 7 1.6812926e+09
9.2015839 -6.1718144 -1.3541734 38 4 1.6812926e+09
8.0682926 -3.5165355 -0.76544046 4 5 1.6812926e+09
6.5044546 -4.3670769 -1.5132549 22 2 1.6812926e+09
8.9227858 -3.882911 -1.5374877 15 3 1.6812926e+09
4.7406931 -3.1871142 -1.520218 17 0 1.6812926e+09
6.0137353 -2.6111898 -1.5032085 22 1 1.6812926e+09
9.1507454 -6.1655121 2.5352957 46 14 1.6812926e+09
35.025402 -15.190994 10.206157 4 15 1.6812926e+09
9.1666479 -6.1762447 1.7411805 46 12 1.6812926e+09
44.650311 -19.475178 9.4532442 1 13 1.6812926e+09
9.1549444 -6.1706877 0.96285307 44 10 1.6812926e+09
11.851856 -5.1952815 1.5823536 2 11 1.6812926e+09
9.1572313 -6.176888 0.19219461 46 8 1.6812926e+09
11.864639 -5.2132053 0.67735809 2 9 1.6812926e+09
9.1376667 -6.1683292 -0.57787532 44 6 1.6812926e+09
12.161024 -5.3483677 -0.231288 8 7 1.6812926e+09
9.1594267 -6.1899991 -1.3511311 38 4 1.6812926e+09
11.706457 -5.1486502 -1.1135854 39 5 1.6812926e+09
6.5005989 -4.3991432 -1.516112 21 2 1.6812926e+09
8.6959686 -3.8222957 -1.5006851 16 3 1.6812926e+09
4.7195439 -3.1968679 -1.5169848 21 0 1.6812926e+09
5.9019179 -2.5872481 -1.4773784 19 1 1.6812926e+09
9.1029692 -6.179625 2.5279961 51 14 1.6812926e+09
35.115967 -15.376108 10.248159 3 15 1.6812926e+09
9.118475 -6.1901703 1.7361076 49 12 1.6812926e+09
44.750519 -19.705078 9.4889889 1 13 1.6812926e+09
9.1189289 -6.1928105 0.96132785 44 10 1.6812926e+09
11.820032 -5.2305999 1.5805281 2 11 1.6812926e+09
9.102541 -6.1863289 0.19149652 46 8 1.6812926e+09
11.789307 -5.2293024 0.67408711 3 9 1.6812926e+09
9.0975027 -6.1875477 -0.57669383 46 6 1.6812926e+09
12.02118 -5.337069 -0.22897556 4 7 1.6812926e+09
9.1131544 -6.2051716 -1.3474802 35 4 1.6812926e+09
11.651987 -5.1733251 -1.1101061 31 5 1.6812926e+09
6.4608741 -4.405211 -1.5103979 21 2 1.6812926e+09
8.7119198 -3.8656321 -1.5057749 16 3 1.6812926e+09
4.7163329 -3.2187707 -1.5195714 18 0 1.6812926e+09
6.0265574 -2.6668892 -1.51107 17 1 1.6812926e+09
9.0683508 -6.2001505 2.5240653 46 14 1.6812926e+09
35.254772 -15.576386 10.303733 4 15 1.6812926e+09
9.0856695 -6.2120104 1.7337663 52 12 1.6812926e+09
44.846416 -19.925098 9.523304 1 13 1.6812926e+09
9.0675106 -6.2019215 0.95805949 51 10 1.6812926e+09
11.696112 -5.2222576 1.5662289 2 11 1.6812926e+09
9.0675383 -6.2065949 0.19119111 50 8 1.6812926e+09
11.724039 -5.2469687 0.67133945 3 9 1.6812926e+09
9.0563393 -6.2035708 -0.57538104 48 6 1.6812926e+09
11.84506 -5.3085175 -0.22596501 2 7 1.6812926e+09
9.0720644 -6.2213202 -1.3444377 35 4 1.6812926e+09
11.595216 -5.1966648 -1.1064093 31 5 1.6812926e+09
6.4705043 -4.4432888 -1.516112 21 2 1.6812926e+09
8.9605293 -4.0114093 -1.5511909 15 3 1.6812926e+09
4.6891532 -3.2242634 -1.5143985 17 0 1.6812926e+09
6.0750613 -2.7137022 -1.5256697 18 1 1.6812926e+09
9.0205755 -6.2137976 2.5167654 44 14 1.6812926e+09
35.317089 -15.751476 10.337982 4 15 1.6812926e+09
9.0354643 -6.2240715 1.7283032 46 12 1.6812926e+09
44.940067 -20.154818 9.5580959 1 13 1.6812926e+09
9.0262651 -6.2223887 0.95609844 46 10 1.6812926e+09
11.537528 -5.1998892 1.547366 9 11 1.6812926e+09
9.0118122 -6.2170711 0.190493 46 8 1.6812926e+09
11.506771 -5.2005229 0.6599564 10 9 1.6812926e+09
9.0109444 -6.2211156 -0.573937 44 6 1.6812926e+09
11.5144 -5.2088008 -0.21998757 9 7 1.6812926e+09
9.0247087 -6.2375956 -1.3407868 35 4 1.6812926e+09
11.547503 -5.2237744 -1.1035825 32 5 1.6812926e+09
6.4367933 -4.4532771 -1.5118265 21 2 1.6812926e+09
8.9554739 -4.0467262 -1.5527569 15 3 1.6812926e+09
4.6580224 -3.2268538 -1.5079321 16 0 1.6812926e+09
5.9478111 -2.6819029 -1.4959087 16 1 1.6812926e+09
8.9757299 -6.2315316 2.5105886 44 14 1.6812926e+09
11.573171 -5.2160439 3.3874047 11 15 1.6812926e+09
8.9963646 -6.2458773 1.7251813 44 12 1.6812926e+09
11.529925 -5.2255821 2.4516003 30 13 1.6812926e+09
8.9840384 -6.2396483 0.95391959 48 10 1.6812926e+09
11.570347 -5.2657638 1.5543635 52 11 1.6812926e+09
8.9715853 -6.2356482 0.19010033 44 8 1.6812926e+09
11.561244 -5.273787 0.66414326 51 9 1.6812926e+09
8.9768782 -6.2439771 -0.57314938 43 6 1.6812926e+09
11.468858 -5.2365136 -0.219464 49 7 1.6812926e+09
8.9845543 -6.2562938 -1.3380487 38 4 1.6812926e+09
11.483879 -5.2433786 -1.0992334 34 5 1.6812926e+09
6.4345179 -4.4866686 -1.5151596 21 2 1.6812926e+09
8.9473228 -4.0825939 -1.5539315 17 3 1.6812926e+09
4.6308913 -3.2320318 -1.5027591 16 0 1.6812926e+09
5.9206691 -2.6945882 -1.4914165 18 1 1.6812926e+09
8.9319677 -6.2474627 2.5044117 50 14 1.6812926e+09
11.464749 -5.2154431 3.3609102 50 15 1.6812926e+09
8.9461823 -6.2574234 1.7197182 44 12 1.6812926e+09
11.433492 -5.2300959 2.4349196 46 13 1.6812926e+09
8.9295578 -6.2481208 0.95043337 43 10 1.6812926e+09
11.414322 -5.2429881 1.5358049 44 11 1.6812926e+09
8.9313383 -6.2540197 0.18970765 46 8 1.6812926e+09
11.402139 -5.2494302 0.65603119 47 9 1.6812926e+09
8.9100533 -6.2437472 -0.5702613 44 6 1.6812926e+09
11.384664 -5.246202 -0.2181987 42 7 1.6812926e+09
8.9342251 -6.2676625 -1.3337893 38 4 1.6812926e+09
11.424786 -5.2646861 -1.0953192 34 5 1.6812926e+09
6.3545637 -4.4639435 -1.4999224 21 2 1.6812926e+09
8.9150724 -4.105547 -1.5507994 17 3 1.6812926e+09
4.611681 -3.2426183 -1.5001725 17 0 1.6812926e+09
5.982091 -2.7477272 -1.5093853 24 1 1.6812926e+09
8.8921833 -6.2659702 2.4993579 44 14 1.6812926e+09
11.422328 -5.2443552 3.353802 54 15 1.6812926e+09
8.8899727 -6.2644262 1.7130843 46 12 1.6812926e+09
11.383965 -5.2555842 2.4282472 39 13 1.6812926e+09
8.8954821 -6.2706413 0.94912601 43 10 1.6812926e+09
11.355421 -5.2640295 1.5303285 38 11 1.6812926e+09
8.8890295 -6.2707453 0.18927133 51 8 1.6812926e+09
11.338455 -5.2681761 0.65341437 39 9 1.6812926e+09
8.8780079 -6.2676101 -0.56960493 49 6 1.6812926e+09
11.33001 -5.2690582 -0.2175006 39 7 1.6812926e+09
8.9021626 -6.2916484 -1.3322681 38 4 1.6812926e+09
11.365684 -5.2856455 -1.091405 34 5 1.6812926e+09
6.3910203 -4.5229707 -1.5123026 21 2 1.6812926e+09
8.9096432 -4.1407995 -1.5523653 16 3 1.6812926e+09
4.5924535 -3.2531102 -1.4975861 17 0 1.6812926e+09
6.0211034 -2.7910979 -1.5217389 19 1 1.6812926e+09
8.8543682 -6.2856879 2.4948659 48 14 1.6812926e+09
11.373269 -5.2699914 3.3447552 46 15 1.6812926e+09
8.8559732 -6.2868423 1.7107431 46 12 1.6812926e+09
11.327726 -5.2776837 2.420145 43 13 1.6812926e+09
8.8552656 -6.2886724 0.94716501 46 10 1.6812926e+09
11.312248 -5.2920785 1.5269818 56 11 1.6812926e+09
8.8528261 -6.2915974 0.18896592 46 8 1.6812926e+09
11.306432 -5.3013682 0.65262932 59 9 1.6812926e+09
8.8377676 -6.2855368 -0.56842345 46 6 1.6812926e+09
11.279864 -5.2937188 -0.21688977 57 7 1.6812926e+09
8.8599339 -6.3082881 -1.3292257 38 4 1.6812926e+09
11.317848 -5.3115416 -1.0885781 33 5 1.6812926e+09
6.4071622 -4.5680552 -1.5199213 22 2 1.6812926e+09
nan nan nan 0 3 1.6812926e+09
4.5791049 -3.2677178 -1.4969394 17 0 1.6812926e+09
6.0333972 -2.8224053 -1.5273542 19 1 1.6812926e+09
8.8343534 -6.3179741 2.4954274 54 14 1.6812926e+09
11.350428 -5.3076148 3.3434627 63 15 1.6812926e+09
8.8399973 -6.3220267 1.7119137 52 12 1.6812926e+09
11.307014 -5.3161497 2.4196687 50 13 1.6812926e+09
8.8231335 -6.3122983 0.94607556 48 10 1.6812926e+09
11.272192 -5.3189807 1.5239395 46 11 1.6812926e+09
8.8023596 -6.3020859 0.18835509 50 8 1.6812926e+09
11.244973 -5.3205314 0.65014338 43 9 1.6812926e+09
8.7975101 -6.3032584 -0.56724197 47 6 1.6812926e+09
11.240981 -5.3234401 -0.21649709 44 7 1.6812926e+09
8.8136654 -6.3218179 -1.3255749 38 4 1.6812926e+09
11.258716 -5.3318443 -1.0846639 35 5 1.6812926e+09
6.4119115 -4.6035953 -1.524683 21 2 1.6812926e+09
nan nan nan 0 3 1.6812926e+09
4.5794325 -3.2921431 -1.5008192 17 0 1.6812926e+09
5.9728231 -2.8195655 -1.5144391 22 1 1.6812926e+09
8.7145252 -6.2760358 2.467351 38 14 1.6812926e+09
11.275965 -5.3184605 3.3266616 43 15 1.6812926e+09
8.7929382 -6.3325419 1.7068408 46 12 1.6812926e+09
11.233877 -5.3273473 2.4077537 41 13 1.6812926e+09
8.8050861 -6.3459711 0.94651133 50 10 1.6812926e+09
11.188574 -5.327383 1.5151165 42 11 1.6812926e+09
8.7956047 -6.3414755 0.1886605 52 8 1.6812926e+09
11.173182 -5.332006 0.64700323 42 9 1.6812926e+09
8.7826319 -6.3367815 -0.56763577 50 6 1.6812926e+09
11.17496 -5.3400307 -0.21558084 42 7 1.6812926e+09
8.75846 -6.326304 -1.3204027 38 4 1.6812926e+09
11.200514 -5.3498435 -1.0807498 34 5 1.6812926e+09
6.1830564 -4.472003 -1.4737332 21 2 1.6812926e+09
8.4386034 -4.0283041 -1.4771941 18 3 1.6812926e+09
4.5561805 -3.2996061 -1.4969394 16 0 1.6812926e+09
6.038249 -2.8749106 -1.5335311 22 1 1.6812926e+09
8.6196146 -6.2534747 2.4465744 35 14 1.6812926e+09
11.215889 -5.3380842 3.3143835 44 15 1.6812926e+09
8.6268873 -6.2587676 1.6787447 38 12 1.6812926e+09
11.177571 -5.3485346 2.3996515 41 13 1.6812926e+09
8.6348572 -6.2668605 0.93038762 39 10 1.6812926e+09
11.154251 -5.3588905 1.5129868 42 11 1.6812926e+09
8.6318588 -6.2692933 0.18560635 39 8 1.6812926e+09
11.138753 -5.3633986 0.64608735 42 9 1.6812926e+09
8.6554585 -6.2910557 -0.56080943 39 6 1.6812926e+09
11.126976 -5.3649044 -0.21501364 44 7 1.6812926e+09
8.6861687 -6.3203306 -1.3127967 33 4 1.6812926e+09
11.14493 -5.3735662 -1.0772704 35 5 1.6812926e+09
6.1455932 -4.4776554 -1.4684954 19 2 1.6812926e+09
8.8539305 -4.2643199 -1.5527569 17 3 1.6812926e+09
4.5563378 -3.3240333 -1.5008192 16 0 1.6812926e+09
6.0232787 -2.8949151 -1.532408 19 1 1.6812926e+09
8.566268 -6.2605205 2.4375901 35 14 1.6812926e+09
11.153641 -5.3563104 3.3014596 41 15 1.6812926e+09
8.5631256 -6.2582378 1.6705499 35 12 1.6812926e+09
11.125677 -5.3715262 2.3925028 41 13 1.6812926e+09
8.5696211 -6.2675853 0.92581183 37 10 1.6812926e+09
11.095276 -5.3783255 1.5075105 38 11 1.6812926e+09
8.5644531 -6.2684021 0.18464646 37 8 1.6812926e+09
11.069613 -5.380198 0.64320886 40 9 1.6812926e+09
8.5578299 -6.2681432 -0.55595225 38 6 1.6812926e+09
11.07221 -5.38623 -0.21431553 40 7 1.6812926e+09
8.5548983 -6.2728729 -1.2963678 37 4 1.6812926e+09
11.085786 -5.3928413 -1.0733563 35 5 1.6812926e+09
6.3633518 -4.6704869 -1.524683 22 2 1.6812926e+09
8.8856392 -4.3178406 -1.5609788 16 3 1.6812926e+09
4.5369248 -3.3341949 -1.4982327 17 0 1.6812926e+09
6.0109439 -2.9148612 -1.5318464 18 1 1.6812926e+09
8.5589552 -6.3034344 2.4420822 25 14 1.6812926e+09
11.10785 -5.3845224 3.293705 42 15 1.6812926e+09
8.5361547 -6.2866521 1.6697695 37 12 1.6812926e+09
11.059577 -5.3897071 2.382494 43 13 1.6812926e+09
8.5256376 -6.2812076 0.92341506 38 10 1.6812926e+09
11.040763 -5.3995934 1.5026426 50 11 1.6812926e+09
8.5244141 -6.2849064 0.18425377 37 8 1.6812926e+09
11.019378 -5.4034286 0.64137715 48 9 1.6812926e+09
8.5198298 -6.2861171 -0.55490208 37 6 1.6812926e+09
11.012943 -5.4050379 -0.21353018 46 7 1.6812926e+09
8.5010185 -6.2791038 -1.2915 37 4 1.6812926e+09
11.033351 -5.4150581 -1.0700945 34 5 1.6812926e+09
6.3036017 -4.6605616 -1.5142072 22 2 1.6812926e+09
8.8993425 -4.3629479 -1.5660685 16 3 1.6812926e+09
4.5310802 -3.3543239 -1.5001725 19 0 1.6812926e+09
6.0072999 -2.9390328 -1.5335311 21 1 1.6812926e+09
8.5927868 -6.3724236 2.4578052 42 14 1.6812926e+09
11.066064 -5.4096699 3.2865968 56 15 1.6812926e+09
8.5648403 -6.351706 1.6795251 24 12 1.6812926e+09
11.039441 -5.425271 2.3820176 52 13 1.6812926e+09
8.535656 -6.3346825 0.92690134 24 10 1.6812926e+09
11.012944 -5.4337111 1.5014256 56 11 1.6812926e+09
8.5215864 -6.3265529 0.18464646 25 8 1.6812926e+09
10.994683 -5.4366231 0.64098459 47 9 1.6812926e+09
8.4929256 -6.3098674 -0.55450821 30 6 1.6812926e+09
10.978326 -5.4356894 -0.21322477 54 7 1.6812926e+09
8.4662132 -6.2968907 -1.2893702 35 4 1.6812926e+09
10.98631 -5.4372659 -1.0672675 35 5 1.6812926e+09
6.2479348 -4.6532092 -1.504684 22 2 1.6812926e+09
8.8884859 -4.3961735 -1.5668516 16 3 1.6812926e+09
4.5116019 -3.3643429 -1.4975861 16 0 1.6812926e+09
5.9887786 -2.9546323 -1.5312849 19 1 1.6812926e+09
8.5743933 -6.4052958 2.4589281 47 14 1.6812926e+09
10.999453 -5.4247823 3.2723804 42 15 1.6812926e+09
8.5643749 -6.3978243 1.6838175 48 12 1.6812926e+09
10.958859 -5.4332728 2.3686731 42 13 1.6812926e+09
8.5664644 -6.4017229 0.93256646 44 10 1.6812926e+09
10.931699 -5.441184 1.4929069 44 11 1.6812926e+09
8.5554934 -6.3981848 0.18586811 44 8 1.6812926e+09
10.913073 -5.4437881 0.63732105 43 9 1.6812926e+09
8.5268078 -6.3813682 -0.55818397 40 6 1.6812926e+09
10.913267 -5.4486351 -0.21230851 42 7 1.6812926e+09
8.5176516 -6.3814669 -1.3006271 23 4 1.6812926e+09
10.933834 -5.4589071 -1.0640057 35 5 1.6812926e+09
6.2395053 -4.6808839 -1.5065886 21 2 1.6812926e+09
8.8797159 -4.4304767 -1.5680261 18 3 1.6812926e+09
4.4888368 -3.3705814 -1.4937063 18 0 1.6812926e+09
5.9806104 -2.976603 -1.5318464 21 1 1.6812926e+09
8.5519829 -6.4351873 2.4589281 50 14 1.6812926e+09
10.943685 -5.44487 3.2613947 43 15 1.6812926e+09
8.5577736 -6.4395614 1.6869394 56 12 1.6812926e+09
10.915679 -5.4594269 2.3634305 42 13 1.6812926e+09
8.5480452 -6.4345827 0.93300223 49 10 1.6812926e+09
10.886024 -5.4659581 1.4892561 41 11 1.6812926e+09
8.5331068 -6.4280105 0.18586811 48 8 1.6812926e+09
10.8717 -5.4706354 0.63601273 42 9 1.6812926e+09
8.5224209 -6.4246221 -0.55936545 46 6 1.6812926e+09
10.860687 -5.4698429 -0.21165404 42 7 1.6812926e+09
8.5091867 -6.4216256 -1.3027568 39 4 1.6812926e+09
10.874667 -5.4768901 -1.0600915 37 5 1.6812926e+09
6.2857747 -4.7499971 -1.5218259 23 2 1.6812926e+09
8.8906679 -4.4747539 -1.5727242 17 3 1.6812926e+09
4.4712667 -3.3818579 -1.4917665 18 0 1.6812926e+09
6.0006742 -3.0127428 -1.5397079 21 1 1.6812926e+09
8.4925842 -6.4370341 2.4482589 46 14 1.6812926e+09
10.881435 -5.4613881 3.2484708 43 15 1.6812926e+09
8.4939213 -6.4380627 1.6787447 47 12 1.6812926e+09
10.8593 -5.4787183 2.3553283 42 13 1.6812926e+09
8.4997358 -6.4448161 0.93016964 47 10 1.6812926e+09
10.827023 -5.4837575 1.4837798 44 11 1.6812926e+09
8.5066347 -6.4547343 0.18578085 50 8 1.6812926e+09
10.814683 -5.4893556 0.63378841 44 9 1.6812926e+09
8.4939785 -6.4498014 -0.55897158 48 6 1.6812926e+09
10.811593 -5.4949012 -0.21108684 43 7 1.6812926e+09
8.4867191 -6.4512892 -1.3027568 40 4 1.6812926e+09
10.830092 -5.5043077 -1.0576996 37 5 1.6812926e+09
6.3374949 -4.8239512 -1.5384916 19 2 1.6812926e+09
8.8904095 -4.5135779 -1.5754648 17 3 1.6812926e+09
4.4492402 -3.3909009 -1.4885333 17 0 1.6812926e+09
5.9874172 -3.0336165 -1.5391463 21 1 1.6812926e+09
8.4468298 -6.4488959 2.4415207 49 14 1.6812926e+09
10.832133 -5.4840775 3.2394238 41 15 1.6812926e+09
8.44981 -6.4511867 1.6744522 51 12 1.6812926e+09
10.807294 -5.499907 2.3481793 41 13 1.6812926e+09
8.4443979 -6.4517283 0.92668343 46 10 1.6812926e+09
10.776872 -5.505724 1.4795203 43 11 1.6812926e+09
8.437254 -6.450943 0.18477733 46 8 1.6812926e+09
10.758933 -5.5107598 0.63169497 44 9 1.6812926e+09
8.4306307 -6.450542 -0.55634606 44 6 1.6812926e+09
10.758976 -5.5155153 -0.21043238 44 7 1.6812926e+09
8.4511976 -6.4732952 -1.3009313 39 4 1.6812926e+09
10.777561 -5.5250483 -1.0544376 37 5 1.6812926e+09
6.3537226 -4.8714371 -1.5465866 21 2 1.6812926e+09
8.8328333 -4.5232201 -1.5680261 18 3 1.6812926e+09
4.433547 -3.4034691 -1.4872401 17 0 1.6812926e+09
5.9637718 -3.0478551 -1.5357771 22 1 1.6812926e+09
8.4038315 -6.4649544 2.4359052 48 14 1.6812926e+09
10.775394 -5.5050788 3.2284384 56 15 1.6812926e+09
8.4026241 -6.4640412 1.6697695 46 12 1.6812926e+09
10.758677 -5.5249176 2.3419836 59 13 1.6812926e+09
8.4139318 -6.4750886 0.92581183 44 10 1.6812926e+09
10.731112 -5.5296798 1.4758695 57 11 1.6812926e+09
8.4028053 -6.4712029 0.18451557 44 8 1.6812926e+09
10.719664 -5.5379758 0.63051742 56 9 1.6812926e+09
8.3863153 -6.4631648 -0.55490208 43 6 1.6812926e+09
10.713007 -5.5392709 -0.20990881 55 7 1.6812926e+09
8.4148006 -6.4921441 -1.2988017 39 4 1.6812926e+09
10.722806 -5.5443468 -1.0509584 37 5 1.6812926e+09
nan nan nan 0 2 1.6812926e+09
8.8520994 -4.5721388 -1.5742904 15 3 1.6812926e+09
4.4254589 -3.4218793 -1.4885333 17 0 1.6812926e+09
5.9336014 -3.0586221 -1.5307235 21 1 1.6812926e+09
8.3727179 -6.4853263 2.4330978 44 14 1.6812926e+09
10.722721 -5.5230999 3.2180991 43 15 1.6812926e+09
8.3655272 -6.4797697 1.6666477 50 12 1.6812926e+09
10.703239 -5.5413961 2.3338814 42 13 1.6812926e+09
8.3735657 -6.4906845 0.92385083 48 10 1.6812926e+09
10.67651 -5.5488086 1.4710016 43 11 1.6812926e+09
8.3615484 -6.4837112 0.18407924 46 8 1.6812926e+09
10.665805 -5.5550551 0.62842399 43 9 1.6812926e+09
8.3530016 -6.4817533 -0.5541144 46 6 1.6812926e+09
10.658137 -5.5581536 -0.20921072 43 7 1.6812926e+09
8.3755913 -6.5063095 -1.2960635 39 4 1.6812926e+09
10.677855 -5.5660696 -1.048349 37 5 1.6812926e+09
6.0077243 -4.6730056 -1.4699239 21 2 1.6812926e+09
8.700284 -4.5323462 -1.5500163 16 3 1.6812926e+09
4.4192019 -3.4417601 -1.4904732 17 0 1.6812926e+09
5.7936792 -3.0109704 -1.4970318 17 1 1.6812926e+09
8.3308249 -6.4995251 2.4274826 46 14 1.6812926e+09
10.671223 -5.5438075 3.208406 42 15 1.6812926e+09
8.3311758 -6.4998155 1.6643063 47 12 1.6812926e+09
10.653369 -5.5628324 2.3272092 42 13 1.6812926e+09
8.3402176 -6.5092216 0.92254359 44 10 1.6812926e+09
10.628499 -5.5710773 1.4670465 44 11 1.6812926e+09
8.3250761 -6.5020866 0.18377383 44 8 1.6812926e+09
10.610979 -5.5736895 0.62633055 44 9 1.6812926e+09
8.3145914 -6.4985695 -0.55306417 43 6 1.6812926e+09
10.601055 -5.5755572 -0.20846899 44 7 1.6812926e+09
8.3391495 -6.5248003 -1.2939339 38 4 1.6812926e+09
10.630926 -5.5912671 -1.0457395 37 5 1.6812926e+09
5.9875126 -4.6909199 -1.4689715 22 2 1.6812926e+09
8.6909685 -4.5661297 -1.5511909 18 3 1.6812926e+09
4.4071617 -3.457165 -1.4904732 17 0 1.6812926e+09
5.752388 -3.0163682 -1.4891703 18 1 1.6812926e+09
8.2965946 -6.5195322 2.4241133 48 14 1.6812926e+09
10.623992 -5.5664639 3.2000055 42 15 1.6812926e+09
8.2967892 -6.519701 1.661965 48 12 1.6812926e+09
10.594793 -5.5794177 2.3186305 42 13 1.6812926e+09
8.3026009 -6.5289674 0.92101836 46 10 1.6812926e+09
10.571686 -5.5884438 1.4618745 43 11 1.6812926e+09
8.2815485 -6.5170941 0.18333752 46 8 1.6812926e+09
10.550765 -5.591516 0.6239754 43 9 1.6812926e+09
8.2789516 -6.519731 -0.55227655 46 6 1.6812926e+09
10.546189 -5.5938005 -0.20777088 44 7 1.6812926e+09
8.2956953 -6.5399551 -1.2908914 38 4 1.6812926e+09
10.576134 -5.609683 -1.0422603 38 5 1.6812926e+09
5.9633961 -4.705709 -1.4670669 22 2 1.6812926e+09
8.7928247 -4.6588101 -1.5723327 17 3 1.6812926e+09
4.4045386 -3.4800162 -1.4937063 17 0 1.6812926e+09
