# .PCD v0.7 - Point Cloud Data file format
VERSION 0.7
FIELDS x y z intensity ring timestamp
SIZE 4 4 4 4 2 8
TYPE F F F F U F
COUNT 1 1 1 1 1 1
WIDTH 957
HEIGHT 1
VIEWPOINT 0 0 0 1 0 0 0
POINTS 957
DATA ascii
2.7673826 -11.653934 -1.4643084 12 4 1.6812914e+09
2.9036586 -6.6292505 -0.62887895 4 5 1.6812914e+09
1.0137576 -4.277627 -0.8461467 9 2 1.6812914e+09
3.7021885 -8.4412823 -1.4560522 7 3 1.6812914e+09
0.9631533 -4.0763717 -1.1121969 80 0 1.6812914e+09
2.7572312 -6.2689428 -1.5705918 11 1 1.6812914e+09
5.14679 -21.884285 5.1739125 15 14 1.6812914e+09
9.6494703 -21.920971 6.3993645 27 15 1.6812914e+09
3.8379254 -16.31708 2.643379 25 12 1.6812914e+09
6.1301785 -14.009645 2.9629858 36 13 1.6812914e+09
5.018868 -21.356979 1.9163369 90 10 1.6812914e+09
nan nan nan 0 11 1.6812914e+09
5.0166197 -21.380957 0.38273126 89 8 1.6812914e+09
9.5583887 -21.983763 1.2544928 7 9 1.6812914e+09
4.8225694 -20.585939 -1.1099354 14 6 1.6812914e+09
2.8870103 -6.654294 -0.12600636 23 7 1.6812914e+09
2.7199116 -11.634528 -1.4606575 11 4 1.6812914e+09
2.9013472 -6.6873121 -0.63344544 2 5 1.6812914e+09
0.99547958 -4.266798 -0.84328961 19 2 1.6812914e+09
3.5879931 -8.2594337 -1.4223816 3 3 1.6812914e+09
0.95017672 -4.0818954 -1.1128435 74 0 1.6812914e+09
2.738255 -6.2852273 -1.5722765 11 1 1.6812914e+09
5.0846491 -21.963827 5.1885123 29 14 1.6812914e+09
9.5564766 -21.916889 6.3883791 27 15 1.6812914e+09
3.4636009 -14.959086 2.4209511 14 12 1.6812914e+09
6.0822148 -14.033212 2.9634626 32 13 1.6812914e+09
4.9392376 -21.35253 1.9143759 89 10 1.6812914e+09
nan nan nan 0 11 1.6812914e+09
4.9385815 -21.383724 0.38246945 89 8 1.6812914e+09
9.4806051 -22.014702 1.254362 8 9 1.6812914e+09
4.7501216 -20.600218 -1.1098042 15 6 1.6812914e+09
nan nan nan 0 7 1.6812914e+09
2.6815073 -11.653625 -1.4618745 9 4 1.6812914e+09
2.8907878 -6.727138 -0.63627237 1 5 1.6812914e+09
0.97893476 -4.2630706 -0.84186119 49 2 1.6812914e+09
2.9015803 -6.7458048 -1.1588906 2 3 1.6812914e+09
0.93538421 -4.0828333 -1.1121969 71 0 1.6812914e+09
2.7172658 -6.2969832 -1.5728381 11 1 1.6812914e+09
5.0079498 -21.981441 5.1885123 33 14 1.6812914e+09
9.4645872 -21.914642 6.3780398 27 15 1.6812914e+09
3.4058795 -14.947008 2.4170489 46 12 1.6812914e+09
6.0409427 -14.072394 2.9672751 39 13 1.6812914e+09
3.481487 -15.291346 1.3689988 8 10 1.6812914e+09
3.4232647 -8.0141697 1.0642325 4 11 1.6812914e+09
4.8600321 -21.38377 0.38216403 90 8 1.6812914e+09
3.5213661 -8.2633839 0.46893016 4 9 1.6812914e+09
4.6881247 -20.660498 -1.1121671 14 6 1.6812914e+09
3.6570678 -8.5896673 -0.162351 1 7 1.6812914e+09
2.6435506 -11.675014 -1.4633956 8 4 1.6812914e+09
nan nan nan 0 5 1.6812914e+09
0.96512777 -4.2712498 -0.84281343 12 2 1.6812914e+09
nan nan nan 0 3 1.6812914e+09
0.9232471 -4.0954976 -1.1147834 57 0 1.6812914e+09
2.6923919 -6.2997117 -1.5711534 11 1 1.6812914e+09
4.9279933 -21.984524 5.185143 33 14 1.6812914e+09
9.3538256 -21.867619 6.3547764 26 15 1.6812914e+09
3.4238756 -15.272055 2.467778 76 12 1.6812914e+09
5.984097 -14.075331 2.9634626 35 13 1.6812914e+09
3.4128532 -15.235356 1.362898 16 10 1.6812914e+09
3.3943009 -8.0237856 1.0639281 6 11 1.6812914e+09
4.7848139 -21.398167 0.38212043 12 8 1.6812914e+09
nan nan nan 0 9 1.6812914e+09
4.6350088 -20.762018 -1.1167618 16 6 1.6812914e+09
3.5920606 -8.5194788 -0.16078028 2 7 1.6812914e+09
2.6286619 -11.800432 -1.4779992 3 4 1.6812914e+09
3.5790133 -8.4886084 -0.80132043 1 5 1.6812914e+09
0.95499688 -4.2961559 -0.84709895 4 2 1.6812914e+09
3.5176458 -8.3352184 -1.4290376 6 3 1.6812914e+09
0.91103303 -4.1081271 -1.1173699 9 0 1.6812914e+09
2.6722877 -6.3135571 -1.5722765 11 1 1.6812914e+09
4.8459797 -21.977802 5.1795278 34 14 1.6812914e+09
3.6914322 -8.7211552 2.5247216 6 15 1.6812914e+09
3.3912745 -15.37796 2.4829967 45 12 1.6812914e+09
3.6601274 -8.6977873 1.8258321 6 13 1.6812914e+09
3.355366 -15.227718 1.3611548 20 10 1.6812914e+09
3.3710723 -8.0470266 1.0654495 9 11 1.6812914e+09
3.4819922 -15.829023 0.28229266 15 8 1.6812914e+09
nan nan nan 0 9 1.6812914e+09
4.6395826 -21.129213 -1.1356654 45 6 1.6812914e+09
3.6027973 -8.6288252 -0.1626128 3 7 1.6812914e+09
1.8890102 -8.6195564 -1.077619 2 4 1.6812914e+09
3.5445571 -8.4895601 -0.80023319 2 5 1.6812914e+09
0.96563369 -4.4169564 -0.87043107 2 2 1.6812914e+09
3.4847164 -8.3383369 -1.4274714 8 3 1.6812914e+09
0.89617383 -4.1089225 -1.1167233 4 0 1.6812914e+09
2.657779 -6.3408155 -1.5767686 11 1 1.6812914e+09
4.7676854 -21.987444 5.1778431 28 14 1.6812914e+09
3.6432078 -8.6916771 2.5124435 36 15 1.6812914e+09
3.3893614 -15.628622 2.5216289 74 12 1.6812914e+09
3.6306896 -8.7127752 1.8263088 41 13 1.6812914e+09
3.3469992 -15.446234 1.3796754 53 10 1.6812914e+09
3.3696182 -8.1229076 1.0739682 12 11 1.6812914e+09
3.4087574 -15.758014 0.28080922 21 8 1.6812914e+09
3.5397787 -8.5535059 0.48332253 6 9 1.6812914e+09
4.5694876 -21.162363 -1.1365844 71 6 1.6812914e+09
3.5583124 -8.6067057 -0.16195832 3 7 1.6812914e+09
2.5801637 -11.976176 -1.4977748 1 4 1.6812914e+09
3.528239 -8.5340967 -0.80327755 2 5 1.6812914e+09
0.96462625 -4.4874897 -0.88376373 3 2 1.6812914e+09
3.3941441 -8.2021809 -1.4020227 9 3 1.6812914e+09
0.886374 -4.1332784 -1.1225429 4 0 1.6812914e+09
2.6346936 -6.3478055 -1.5762072 9 1 1.6812914e+09
4.6863356 -21.982508 5.1727891 30 14 1.6812914e+09
3.6082113 -8.6931915 2.5092125 38 15 1.6812914e+09
3.3697844 -15.804585 2.5481641 38 12 1.6812914e+09
3.5899451 -8.7004461 1.8210663 36 13 1.6812914e+09
3.3578928 -15.762309 1.4069116 57 10 1.6812914e+09
3.3733392 -8.2126446 1.0843123 18 11 1.6812914e+09
3.3516521 -15.760036 0.28063467 21 8 1.6812914e+09
3.5250633 -8.6027651 0.48541597 6 9 1.6812914e+09
4.4950709 -21.175743 -1.136453 70 6 1.6812914e+09
3.5343254 -8.638195 -0.16230738 3 7 1.6812914e+09
2.4885049 -11.749628 -1.4682635 7 4 1.6812914e+09
3.5214868 -8.6068916 -0.80893141 7 5 1.6812914e+09
1.6585521 -7.8551936 -1.5508721 8 2 1.6812914e+09
3.384239 -8.2596655 -1.4098531 14 3 1.6812914e+09
0.87221223 -4.1412253 -1.1238362 4 0 1.6812914e+09
2.6206818 -6.3799472 -1.5818224 6 1 1.6812914e+09
4.6030817 -21.967735 5.1654897 32 14 1.6812914e+09
3.5732491 -8.6945667 2.5059814 35 15 1.6812914e+09
3.3859754 -16.157038 2.6031859 36 12 1.6812914e+09
3.5558357 -8.7038383 1.8191599 38 13 1.6812914e+09
3.3469927 -15.998785 1.4269574 64 10 1.6812914e+09
3.3633707 -8.2703333 1.0903971 22 11 1.6812914e+09
3.3030598 -15.816259 0.28142005 27 8 1.6812914e+09
3.4916303 -8.6110001 0.48515427 6 9 1.6812914e+09
4.4148812 -21.179855 -1.1357967 80 6 1.6812914e+09
3.5013318 -8.6435289 -0.16217647 3 7 1.6812914e+09
2.4277525 -11.673637 -1.4576151 9 4 1.6812914e+09
3.4455485 -8.5060453 -0.79827607 11 5 1.6812914e+09
1.6241488 -7.8272915 -1.5442058 9 2 1.6812914e+09
3.3683975 -8.3034544 -1.4153343 21 3 1.6812914e+09
0.85628599 -4.1371508 -1.1218964 4 0 1.6812914e+09
1.8804339 -4.6271081 -1.1432695 1 1 1.6812914e+09
4.5205722 -21.974915 5.1632433 30 14 1.6812914e+09
3.5386252 -8.7008953 2.5040431 38 15 1.6812914e+09
3.4227285 -16.636158 2.6784992 39 12 1.6812914e+09
3.5183856 -8.7031641 1.8163004 38 13 1.6812914e+09
3.3392417 -16.244564 1.4478748 43 10 1.6812914e+09
3.373848 -8.383872 1.1037836 27 11 1.6812914e+09
3.320648 -16.182745 0.28774652 70 8 1.6812914e+09
3.4466522 -8.5860739 0.48306084 25 9 1.6812914e+09
4.3339128 -21.160894 -1.1339588 76 6 1.6812914e+09
3.437604 -8.5721931 -0.16060576 12 7 1.6812914e+09
1.9183754 -9.3869333 -1.1704122 8 4 1.6812914e+09
3.4613142 -8.6312656 -0.80893141 9 5 1.6812914e+09
1.5920244 -7.8163567 -1.5408727 9 2 1.6812914e+09
3.3397834 -8.3203268 -1.4161174 8 3 1.6812914e+09
0.84327996 -4.1472139 -1.1238362 3 0 1.6812914e+09
2.6088881 -6.4794183 -1.6020373 4 1 1.6812914e+09
4.4385319 -21.964294 5.1570668 30 14 1.6812914e+09
3.5037162 -8.7019958 2.5008121 36 15 1.6812914e+09
3.4125514 -16.885208 2.7167408 33 12 1.6812914e+09
3.4843323 -8.7062807 1.814394 38 13 1.6812914e+09
3.3731723 -16.705315 1.4879664 38 10 1.6812914e+09
3.3693888 -8.4578266 1.1119982 27 11 1.6812914e+09
3.3046179 -16.39517 0.29132426 36 8 1.6812914e+09
3.4028139 -8.5632591 0.48109826 43 9 1.6812914e+09
4.245748 -21.104916 -1.1301519 54 6 1.6812914e+09
3.4095078 -8.5887871 -0.16069302 54 7 1.6812914e+09
1.8792542 -9.3619452 -1.1664572 84 4 1.6812914e+09
3.410923 -8.5923805 -0.80414736 38 5 1.6812914e+09
1.5661731 -7.8290863 -1.5423011 8 2 1.6812914e+09
3.3381083 -8.4007587 -1.4278629 9 3 1.6812914e+09
0.84106928 -4.21171 -1.1406485 2 0 1.6812914e+09
2.5609565 -6.425139 -1.5863147 1 1 1.6812914e+09
4.2954736 -21.645113 5.0784526 42 14 1.6812914e+09
3.469738 -8.7052011 2.4982271 40 15 1.6812914e+09
3.4131699 -17.197369 2.7651289 28 12 1.6812914e+09
3.4503002 -8.7092648 1.8124875 38 13 1.6812914e+09
3.3913372 -17.102978 1.5223929 34 10 1.6812914e+09
3.37415 -8.5520344 1.1229508 36 11 1.6812914e+09
4.2340288 -21.394176 0.38006976 1 8 1.6812914e+09
3.3710716 -8.5704384 0.4808366 60 9 1.6812914e+09
4.1788225 -21.153894 -1.1319897 79 6 1.6812914e+09
3.372184 -8.5820284 -0.16034397 54 7 1.6812914e+09
1.846084 -9.3660126 -1.1661528 40 4 1.6812914e+09
3.3754373 -8.5903282 -0.80284262 64 5 1.6812914e+09
1.5406752 -7.8366446 -1.5427772 9 2 1.6812914e+09
3.3337712 -8.4715099 -1.4380424 9 3 1.6812914e+09
0.83749098 -4.2715001 -1.1561675 3 0 1.6812914e+09
2.5259745 -6.4023223 -1.5784532 7 1 1.6812914e+09
4.2157488 -21.618589 5.0689068 68 14 1.6812914e+09
3.4293091 -8.6874628 2.4898264 35 15 1.6812914e+09
3.414706 -17.509136 2.8135166 30 12 1.6812914e+09
3.4151185 -8.70467 1.8091514 38 13 1.6812914e+09
3.3511171 -17.214941 1.5313264 26 10 1.6812914e+09
3.36868 -8.6261559 1.1311653 46 11 1.6812914e+09
4.1582904 -21.38356 0.37963343 90 8 1.6812914e+09
3.3734806 -8.6606503 0.48528513 45 9 1.6812914e+09
4.1048474 -21.148033 -1.1309395 69 6 1.6812914e+09
3.369422 -8.6636219 -0.16165291 41 7 1.6812914e+09
1.816429 -9.3793917 -1.1670657 4 4 1.6812914e+09
3.3604963 -8.6362829 -0.80610448 30 5 1.6812914e+09
1.5119175 -7.8347449 -1.5413487 9 2 1.6812914e+09
3.3400733 -8.5751095 -1.4537032 19 3 1.6812914e+09
0.82986206 -4.3123426 -1.1665134 2 0 1.6812914e+09
1.6095327 -4.1240406 -1.0124336 1 1 1.6812914e+09
4.164978 -21.762383 5.0992293 33 14 1.6812914e+09
3.4007235 -8.7038784 2.4911189 34 15 1.6812914e+09
3.4565706 -18.059381 2.9001465 27 12 1.6812914e+09
3.3900495 -8.7302618 1.812011 36 13 1.6812914e+09
4.0850635 -21.364946 1.8999952 90 10 1.6812914e+09
3.3457141 -8.6563759 1.1335992 55 11 1.6812914e+09
4.0812802 -21.38567 0.3794153 95 8 1.6812914e+09
3.342329 -8.6700439 0.48515427 46 9 1.6812914e+09
4.0305347 -21.159777 -1.1308082 71 6 1.6812914e+09
3.3490496 -8.7009878 -0.16213284 45 7 1.6812914e+09
2.2298596 -11.735783 -1.4603533 6 4 1.6812914e+09
3.3422565 -8.6833992 -0.80936623 41 5 1.6812914e+09
1.4850161 -7.8423872 -1.5418249 9 2 1.6812914e+09
nan nan nan 0 3 1.6812914e+09
0.82777095 -4.3840351 -1.1852657 3 0 1.6812914e+09
1.5768111 -4.0844779 -1.0012032 4 1 1.6812914e+09
4.1168489 -21.925234 5.1340442 29 14 1.6812914e+09
3.5264368 -9.1188135 2.6067896 27 15 1.6812914e+09
3.4376953 -18.306755 2.9379983 39 12 1.6812914e+09
3.5085256 -9.1291161 1.8925554 32 13 1.6812914e+09
4.0053544 -21.372435 1.8993415 76 10 1.6812914e+09
3.3403318 -8.7328844 1.142118 32 11 1.6812914e+09
4.0019522 -21.395571 0.37932801 88 8 1.6812914e+09
3.4352167 -9.0087585 0.50347191 33 9 1.6812914e+09
3.9520371 -21.169498 -1.1305456 57 6 1.6812914e+09
3.5003991 -9.1890602 -0.17103358 36 7 1.6812914e+09
2.1800222 -11.707283 -1.4557897 7 4 1.6812914e+09
nan nan nan 0 5 1.6812914e+09
1.4549457 -7.8330441 -1.538968 9 2 1.6812914e+09
nan nan nan 0 3 1.6812914e+09
0.82299507 -4.4438915 -1.2007847 3 0 1.6812914e+09
1.5590566 -4.0808578 -0.99895704 4 1 1.6812914e+09
4.037343 -21.944969 5.1351671 27 14 1.6812914e+09
3.3850038 -8.8497725 2.5260141 6 15 1.6812914e+09
3.4201491 -18.58881 2.9813132 39 12 1.6812914e+09
3.371145 -8.8689756 1.8358407 6 13 1.6812914e+09
3.4852178 -18.961285 1.6836311 26 10 1.6812914e+09
3.3485281 -8.8465843 1.1555045 19 11 1.6812914e+09
3.9240873 -21.392199 0.3790226 90 8 1.6812914e+09
3.3596258 -8.9039259 0.49692988 12 9 1.6812914e+09
3.8772192 -21.178257 -1.1302831 60 6 1.6812914e+09
3.464771 -9.1918688 -0.17085905 26 7 1.6812914e+09
2.138252 -11.70994 -1.4551811 6 4 1.6812914e+09
3.4706519 -9.2074823 -0.85611904 41 5 1.6812914e+09
1.4280336 -7.8404899 -1.539444 9 2 1.6812914e+09
3.3950422 -8.9930086 -1.518695 26 3 1.6812914e+09
1.0533221 -5.8035684 -1.5700082 12 0 1.6812914e+09
1.5387552 -4.0703306 -0.99502635 6 1 1.6812914e+09
3.9589238 -21.927071 5.1278672 26 14 1.6812914e+09
3.3453612 -8.8338518 2.5182593 6 15 1.6812914e+09
3.4321651 -19.008307 3.0468709 34 12 1.6812914e+09
3.3287339 -8.8456602 1.8286917 7 13 1.6812914e+09
3.4247487 -19.005201 1.6864637 46 10 1.6812914e+09
3.3132701 -8.8466015 1.1539834 19 11 1.6812914e+09
3.850028 -21.387873 0.37871718 86 8 1.6812914e+09
3.3318303 -8.9196939 0.49719158 12 9 1.6812914e+09
3.8029969 -21.168879 -1.1291016 57 6 1.6812914e+09
3.4282916 -9.1921988 -0.1706409 38 7 1.6812914e+09
2.1033442 -11.738948 -1.4579194 7 4 1.6812914e+09
3.4348691 -9.2049427 -0.85481429 36 5 1.6812914e+09
1.4002259 -7.8430114 -1.538968 11 2 1.6812914e+09
3.3662252 -9.0117426 -1.5198694 23 3 1.6812914e+09
1.0330575 -5.8072095 -1.5700082 22 0 1.6812914e+09
nan nan nan 0 1 1.6812914e+09
3.7805319 -21.365023 4.9931006 33 14 1.6812914e+09
3.3060195 -8.8228655 2.5117974 6 15 1.6812914e+09
3.4406254 -19.443274 3.1147699 39 12 1.6812914e+09
3.2884042 -8.8319302 1.8234491 7 13 1.6812914e+09
3.3894389 -19.17341 1.7004086 48 10 1.6812914e+09
3.2866862 -8.8697462 1.1555045 11 11 1.6812914e+09
3.5166507 -19.93404 0.35271311 21 8 1.6812914e+09
3.2885425 -8.8984909 0.49535984 14 9 1.6812914e+09
3.7264848 -21.167274 -1.128314 59 6 1.6812914e+09
3.3944511 -9.19942 -0.17055364 38 7 1.6812914e+09
2.0563524 -11.712002 -1.45366 7 4 1.6812914e+09
3.3950655 -9.2011175 -0.85329211 35 5 1.6812914e+09
1.3711506 -7.8381801 -1.5370632 11 2 1.6812914e+09
3.3390329 -9.0350161 -1.5218271 8 3 1.6812914e+09
1.0115384 -5.8036432 -1.5680684 20 0 1.6812914e+09
1.2643907 -3.4186788 -0.83218348 11 1 1.6812914e+09
3.6984446 -21.334883 4.9829931 34 14 1.6812914e+09
3.2920144 -8.879631 2.5247216 4 15 1.6812914e+09
3.4330208 -19.803099 3.1705718 41 12 1.6812914e+09
3.27964 -8.9032202 1.8358407 3 13 1.6812914e+09
3.3700619 -19.480196 1.7265552 49 10 1.6812914e+09
nan nan nan 0 11 1.6812914e+09
3.4333644 -19.88768 0.35166597 26 8 1.6812914e+09
3.2679174 -8.9433079 0.49719158 3 9 1.6812914e+09
3.687006 -21.40222 -1.1401287 54 6 1.6812914e+09
nan nan nan 0 7 1.6812914e+09
2.0142515 -11.724351 -1.4542685 7 4 1.6812914e+09
3.3714778 -9.2363043 -0.85546672 30 5 1.6812914e+09
1.3458515 -7.8550138 -1.539444 11 2 1.6812914e+09
3.3091726 -9.0512543 -1.5226101 6 3 1.6812914e+09
0.99208498 -5.8118992 -1.5693616 19 0 1.6812914e+09
1.2448899 -3.4024911 -0.82712972 29 1 1.6812914e+09
3.6190023 -21.341091 4.9813089 35 14 1.6812914e+09
3.2919078 -8.9800539 2.5499234 4 15 1.6812914e+09
3.4037452 -20.071182 3.2115452 36 12 1.6812914e+09
3.2814662 -9.0097084 1.855381 3 13 1.6812914e+09
3.3777118 -19.938747 1.7662112 43 10 1.6812914e+09
5.1297379 -14.137958 1.8397409 1 11 1.6812914e+09
3.377665 -19.980881 0.35310581 29 8 1.6812914e+09
3.2120357 -8.8865824 0.49339721 8 9 1.6812914e+09
3.6164265 -21.439577 -1.1414416 41 6 1.6812914e+09
2.7674453 -7.6667566 -0.1416699 19 7 1.6812914e+09
1.97208 -11.72397 -1.4533558 8 4 1.6812914e+09
2.8242974 -7.8240156 -0.7232542 1 5 1.6812914e+09
1.3163967 -7.8475614 -1.5370632 8 2 1.6812914e+09
nan nan nan 0 3 1.6812914e+09
0.967421 -5.789125 -1.5622487 14 0 1.6812914e+09
1.2305093 -3.3999467 -0.82544512 14 1 1.6812914e+09
3.5498095 -21.362587 4.9835548 35 14 1.6812914e+09
7.8208027 -21.536259 6.1214962 21 15 1.6812914e+09
3.4023063 -20.474552 3.2743714 20 12 1.6812914e+09
5.0873942 -14.105807 2.905318 47 13 1.6812914e+09
3.3826077 -20.400042 1.8060849 38 10 1.6812914e+09
5.0602212 -14.09973 1.8324391 52 11 1.6812914e+09
3.3187361 -20.03636 0.35389116 29 8 1.6812914e+09
3.2238069 -9.0123501 0.49980837 7 9 1.6812914e+09
3.5453103 -21.451452 -1.1414416 40 6 1.6812914e+09
2.766762 -7.749332 -0.14302246 8 7 1.6812914e+09
1.9331911 -11.730446 -1.4533558 7 4 1.6812914e+09
3.5736973 -10.000029 -0.92418236 15 5 1.6812914e+09
1.2874074 -7.8424211 -1.5351585 8 2 1.6812914e+09
2.7770669 -7.7654476 -1.3021859 2 3 1.6812914e+09
0.94837427 -5.7996168 -1.5641885 14 0 1.6812914e+09
1.2390137 -3.4590259 -0.83892179 12 1 1.6812914e+09
3.5287507 -21.704273 5.0604839 29 14 1.6812914e+09
7.7341433 -21.531607 6.1124496 15 15 1.6812914e+09
nan nan nan 0 12 1.6812914e+09
5.0232701 -14.081878 2.8967392 46 13 1.6812914e+09
nan nan nan 0 10 1.6812914e+09
5.0026655 -14.093925 1.8293966 69 11 1.6812914e+09
3.4909589 -21.543104 0.38033155 30 8 1.6812914e+09
4.9666209 -14.031219 0.77823567 26 9 1.6812914e+09
3.4743919 -21.488342 -1.1427543 36 6 1.6812914e+09
2.7546992 -7.8013606 -0.14380781 8 7 1.6812914e+09
1.8922324 -11.737123 -1.4533558 7 4 1.6812914e+09
3.5386825 -10.017756 -0.92461729 66 5 1.6812914e+09
1.2611903 -7.8541374 -1.5365871 8 2 1.6812914e+09
3.2554398 -9.2017794 -1.5421859 1 3 1.6812914e+09
0.92736274 -5.7981229 -1.5628954 14 0 1.6812914e+09
1.4393029 -4.0626416 -0.98548037 3 1 1.6812914e+09
3.469408 -21.819914 5.0846295 26 14 1.6812914e+09
7.6581273 -21.556198 6.1118031 15 15 1.6812914e+09
3.4581084 -21.748888 3.4745567 19 12 1.6812914e+09
4.9561062 -14.048416 2.8862541 57 13 1.6812914e+09
3.4659331 -21.847359 1.9322429 39 10 1.6812914e+09
4.9526162 -14.108961 1.8290925 76 11 1.6812914e+09
3.4533792 -21.817459 0.38495642 30 8 1.6812914e+09
4.9060841 -14.023408 0.7767964 68 9 1.6812914e+09
3.4489379 -21.838778 -1.1607391 39 6 1.6812914e+09
2.739831 -7.8463202 -0.14446229 28 7 1.6812914e+09
1.8507432 -11.753783 -1.4545727 7 4 1.6812914e+09
3.4461293 -9.8654871 -0.90939546 29 5 1.6812914e+09
0.87949592 -5.5987468 -1.0928005 2 2 1.6812914e+09
2.7178881 -7.7706647 -1.2998369 2 3 1.6812914e+09
0.90711784 -5.8013244 -1.5628954 13 0 1.6812914e+09
1.428345 -4.0768337 -0.98772657 4 1 1.6812914e+09
3.3968818 -21.880629 5.0958605 25 14 1.6812914e+09
7.5910778 -21.618299 6.1214962 14 15 1.6812914e+09
3.415477 -22.000551 3.5127983 40 12 1.6812914e+09
4.8997307 -14.052586 2.8833947 47 13 1.6812914e+09
3.4140625 -22.016836 1.9461877 34 10 1.6812914e+09
4.8593574 -13.999589 1.8126634 48 11 1.6812914e+09
3.3856044 -21.883726 0.38591632 23 8 1.6812914e+09
4.8734417 -14.087632 0.77941322 62 9 1.6812914e+09
3.3810596 -21.904964 -1.1636271 34 6 1.6812914e+09
2.7312183 -7.9101691 -0.14546581 19 7 1.6812914e+09
1.8097036 -11.760172 -1.4545727 7 4 1.6812914e+09
3.4043438 -9.8562727 -0.90743834 32 5 1.6812914e+09
0.85437238 -5.5653934 -1.0856581 11 2 1.6812914e+09
2.655179 -7.6774492 -1.2826101 1 3 1.6812914e+09
0.88649791 -5.8020678 -1.5622487 14 0 1.6812914e+09
1.4101057 -4.0702896 -0.98491883 4 1 1.6812914e+09
3.3246698 -21.894184 5.0964217 18 14 1.6812914e+09
7.5122104 -21.622824 6.1156807 12 15 1.6812914e+09
3.3495421 -22.058144 3.5202129 34 12 1.6812914e+09
4.8450937 -14.045557 2.8786285 47 13 1.6812914e+09
3.3409171 -22.053242 1.9483666 38 10 1.6812914e+09
4.8064294 -14.004732 1.8111423 43 11 1.6812914e+09
3.3388078 -22.065369 0.38892686 35 8 1.6812914e+09
4.8485441 -14.167486 0.78294587 61 9 1.6812914e+09
3.3113813 -21.935806 -1.1646774 15 6 1.6812914e+09
4.8276167 -14.130501 -0.26004085 30 7 1.6812914e+09
1.7703266 -11.763654 -1.4542685 7 4 1.6812914e+09
3.5320966 -10.336429 -0.95071179 15 5 1.6812914e+09
0.83312446 -5.5562062 -1.0832772 7 2 1.6812914e+09
2.6003561 -7.6049147 -1.2689071 3 3 1.6812914e+09
0.86588377 -5.8027387 -1.5616021 13 0 1.6812914e+09
1.3918464 -4.0611215 -0.98154974 4 1 1.6812914e+09
3.2482245 -21.905653 5.0964217 16 14 1.6812914e+09
7.4382567 -21.653482 6.1169729 14 15 1.6812914e+09
3.2721622 -22.067259 3.5198224 34 12 1.6812914e+09
4.7793851 -14.013612 2.8686202 34 13 1.6812914e+09
3.2721441 -22.093765 1.9509814 38 10 1.6812914e+09
4.7918301 -14.122458 1.8242246 45 11 1.6812914e+09
3.2643209 -22.094198 0.38923228 35 8 1.6812914e+09
4.7526121 -14.047174 0.77535713 45 9 1.6812914e+09
nan nan nan 0 6 1.6812914e+09
4.7711191 -14.118018 -0.25951728 32 7 1.6812914e+09
0.94693154 -6.4397101 -0.79376286 6 4 1.6812914e+09
3.519937 -10.419472 -0.95723552 19 5 1.6812914e+09
0.81372464 -5.5590806 -1.0832772 4 2 1.6812914e+09
3.0680337 -9.0732737 -1.5132136 8 3 1.6812914e+09
0.847332 -5.8103576 -1.5628954 12 0 1.6812914e+09
1.3729565 -4.0521169 -0.97818059 4 1 1.6812914e+09
3.1647654 -21.868639 5.0851912 16 14 1.6812914e+09
7.3626261 -21.679316 6.1169729 15 15 1.6812914e+09
3.1883969 -22.032108 3.512408 32 12 1.6812914e+09
4.7382865 -14.053461 2.8733861 36 13 1.6812914e+09
3.1903729 -22.073006 1.9481487 33 10 1.6812914e+09
4.7274976 -14.094403 1.8184441 42 11 1.6812914e+09
3.1910996 -22.132673 0.38971221 32 8 1.6812914e+09
4.7051339 -14.068412 0.77561885 46 9 1.6812914e+09
nan nan nan 0 6 1.6812914e+09
4.7146749 -14.113252 -0.25912458 33 7 1.6812914e+09
1.2167749 -8.4842091 -1.0465864 2 4 1.6812914e+09
3.514349 -10.523812 -0.96571618 20 5 1.6812914e+09
0.79327613 -5.5545979 -1.0818487 6 2 1.6812914e+09
3.0465336 -9.1143665 -1.5183034 9 3 1.6812914e+09
0.8267054 -5.8108888 -1.5622487 13 0 1.6812914e+09
nan nan nan 0 1 1.6812914e+09
3.0884106 -21.879553 5.0851912 18 14 1.6812914e+09
7.2699866 -21.65452 6.1027565 14 15 1.6812914e+09
3.1131961 -22.05533 3.5143592 35 12 1.6812914e+09
4.7086191 -14.128116 2.8853009 40 13 1.6812914e+09
3.1157367 -22.101271 1.9496739 36 10 1.6812914e+09
4.645442 -14.011905 1.805666 43 11 1.6812914e+09
3.1099958 -22.116447 0.38923228 36 8 1.6812914e+09
4.6607037 -14.098972 0.7764039 43 9 1.6812914e+09
nan nan nan 0 6 1.6812914e+09
7.0650053 -21.389666 -0.39259186 47 7 1.6812914e+09
nan nan nan 0 4 1.6812914e+09
3.5033851 -10.61405 -0.97289217 19 5 1.6812914e+09
0.77185571 -5.542748 -1.0789918 6 2 1.6812914e+09
3.0193546 -9.1390114 -1.5206525 11 3 1.6812914e+09
0.80641663 -5.8137388 -1.5622487 13 0 1.6812914e+09
1.1211017 -3.3888555 -0.81477606 12 1 1.6812914e+09
2.9960871 -21.774355 5.0582376 7 14 1.6812914e+09
7.2034869 -21.707268 6.1105108 18 15 1.6812914e+09
3.0112956 -21.885036 3.4854829 18 12 1.6812914e+09
4.6339121 -14.067554 2.8695734 36 13 1.6812914e+09
3.0361977 -22.094742 1.9481487 36 10 1.6812914e+09
4.6011438 -14.042182 1.8074914 47 11 1.6812914e+09
2.9835865 -21.768078 0.38290575 48 8 1.6812914e+09
4.6254296 -14.157868 0.778759 50 9 1.6812914e+09
2.9676118 -21.707808 -1.150237 1 6 1.6812914e+09
3.1871245 -9.7714891 -0.1787999 22 7 1.6812914e+09
0.82289332 -6.0337439 -0.74234623 12 4 1.6812914e+09
3.4933803 -10.709074 -0.98050314 19 5 1.6812914e+09
0.75579584 -5.5697289 -1.0837535 8 2 1.6812914e+09
2.990505 -9.1588812 -1.5222185 11 3 1.6812914e+09
0.78611797 -5.8165188 -1.5622487 14 0 1.6812914e+09
1.1077454 -3.3881195 -0.81365305 19 1 1.6812914e+09
2.9253051 -21.852802 5.0739608 13 14 1.6812914e+09
7.1216197 -21.726641 6.1085725 18 15 1.6812914e+09
2.9385931 -21.952219 3.4944577 18 12 1.6812914e+09
4.5694008 -14.044773 2.8614712 35 13 1.6812914e+09
2.9199064 -21.841587 1.9248345 22 10 1.6812914e+09
4.5612807 -14.086483 1.8111423 43 11 1.6812914e+09
2.8985 -21.739223 0.38220769 60 8 1.6812914e+09
4.5589275 -14.129587 0.77627301 41 9 1.6812914e+09
2.8995397 -21.805159 -1.1548316 1 6 1.6812914e+09
3.145149 -9.7640743 -0.17845084 62 7 1.6812914e+09
0.79751688 -6.0121193 -0.73930383 21 4 1.6812914e+09
nan nan nan 0 5 1.6812914e+09
0.74565142 -5.6428957 -1.0975622 8 2 1.6812914e+09
2.9494042 -9.1410713 -1.5175203 9 3 1.6812914e+09
nan nan nan 0 0 1.6812914e+09
1.0983262 -3.4014258 -0.81589919 11 1 1.6812914e+09
2.8521924 -21.85755 5.0728374 18 14 1.6812914e+09
7.0294142 -21.68811 6.0911245 18 15 1.6812914e+09
2.8772764 -22.049994 3.5085058 26 12 1.6812914e+09
4.5160313 -14.038825 2.8571818 34 13 1.6812914e+09
2.8690214 -22.046751 1.9420478 32 10 1.6812914e+09
4.5173807 -14.118861 1.813272 49 11 1.6812914e+09
2.8228528 -21.721449 0.38172773 80 8 1.6812914e+09
4.5059719 -14.125601 0.77522635 46 9 1.6812914e+09
2.8297803 -21.834459 -1.1558819 2 6 1.6812914e+09
3.115602 -9.7892838 -0.17871264 26 7 1.6812914e+09
0.77535349 -5.9975042 -0.73717415 16 4 1.6812914e+09
3.120358 -9.7983341 -0.89482594 28 5 1.6812914e+09
0.72376359 -5.6284237 -1.094229 15 2 1.6812914e+09
2.8866825 -9.0548725 -1.5014682 4 3 1.6812914e+09
nan nan nan 0 0 1.6812914e+09
nan nan nan 0 1 1.6812914e+09
2.7755713 -21.864956 5.0722761 18 14 1.6812914e+09
6.9544034 -21.714817 6.0917711 19 15 1.6812914e+09
2.8006012 -22.062353 3.5088964 36 12 1.6812914e+09
4.4796486 -14.094259 2.865284 40 13 1.6812914e+09
2.8018429 -22.10309 1.9461877 33 10 1.6812914e+09
4.4673204 -14.132178 1.8129678 43 11 1.6812914e+09
2.7846081 -22.028759 0.38696346 40 8 1.6812914e+09
4.4506273 -14.122196 0.77417958 50 9 1.6812914e+09
nan nan nan 0 6 1.6812914e+09
3.1334548 -9.9592924 -0.1816359 14 7 1.6812914e+09
0.75225163 -5.9829392 -0.73504448 12 4 1.6812914e+09
3.4701173 -11.02774 -1.0063802 14 5 1.6812914e+09
nan nan nan 0 2 1.6812914e+09
nan nan nan 0 3 1.6812914e+09
0.69331676 -5.5680046 -1.4930598 8 0 1.6812914e+09
1.2863226 -4.0753365 -0.97705752 6 1 1.6812914e+09
2.700424 -21.884182 5.074522 18 14 1.6812914e+09
6.8734593 -21.722843 6.0872474 20 15 1.6812914e+09
2.7214565 -22.054838 3.5061648 35 12 1.6812914e+09
4.4333668 -14.119177 2.8671904 42 13 1.6812914e+09
2.7182801 -22.060827 1.9416121 34 10 1.6812914e+09
4.4105587 -14.124002 1.8099253 46 11 1.6812914e+09
2.7180538 -22.1227 0.38844693 40 8 1.6812914e+09
4.4005613 -14.135262 0.77404881 45 9 1.6812914e+09
0.76017052 -6.1948977 -0.3263512 4 6 1.6812914e+09
3.1425025 -10.110983 -0.18421014 13 7 1.6812914e+09
0.73256367 -5.9953809 -0.73626143 4 4 1.6812914e+09
nan nan nan 0 5 1.6812914e+09
0.72460908 -5.9646912 -1.1589876 29 2 1.6812914e+09
2.8660088 -9.2115288 -1.5241762 9 3 1.6812914e+09
0.673298 -5.5655961 -1.4917665 11 0 1.6812914e+09
1.2677231 -4.0658517 -0.97368836 6 1 1.6812914e+09
2.6199617 -21.85961 5.0666609 18 14 1.6812914e+09
6.7853332 -21.707521 6.0762625 21 15 1.6812914e+09
2.644454 -22.064203 3.5061648 36 12 1.6812914e+09
4.3767772 -14.111127 2.8624244 41 13 1.6812914e+09
2.6459887 -22.109745 1.9450983 41 10 1.6812914e+09
4.3495154 -14.101376 1.8050574 45 11 1.6812914e+09
2.6414063 -22.137014 0.38853416 40 8 1.6812914e+09
4.3533969 -14.157696 0.7744413 42 9 1.6812914e+09
0.72144699 -6.0537262 -0.31873721 2 6 1.6812914e+09
3.1480043 -10.261017 -0.18674074 13 7 1.6812914e+09
0.70638156 -5.9535456 -0.73078507 25 4 1.6812914e+09
4.6529255 -15.158965 -1.3814895 1 5 1.6812914e+09
nan nan nan 0 2 1.6812914e+09
2.8272991 -9.2002392 -1.5206525 11 3 1.6812914e+09
0.65065056 -5.5488377 -1.4865935 12 0 1.6812914e+09
1.2513741 -4.0658159 -0.97256529 6 1 1.6812914e+09
2.5442042 -21.873465 5.0677838 18 14 1.6812914e+09
6.703815 -21.712614 6.0710926 20 15 1.6812914e+09
2.5657094 -22.058586 3.5038235 34 12 1.6812914e+09
4.3188586 -14.098164 2.8567054 40 13 1.6812914e+09
2.5594873 -22.07229 1.9409583 40 10 1.6812914e+09
4.2872372 -14.07375 1.7995812 41 11 1.6812914e+09
2.5533679 -22.086954 0.38748702 38 8 1.6812914e+09
4.2804303 -14.104281 0.77064693 41 9 1.6812914e+09
0.6918273 -5.9918461 -0.31532404 2 6 1.6812914e+09
3.1564419 -10.417851 -0.18940224 15 7 1.6812914e+09
0.68201232 -5.933908 -0.72804695 33 4 1.6812914e+09
4.5876889 -15.1346 -1.3777927 3 5 1.6812914e+09
0.64900345 -5.6721182 -1.1008953 16 2 1.6812914e+09
2.7879851 -9.1864281 -1.5167373 9 3 1.6812914e+09
0.63154972 -5.5534749 -1.4872401 18 0 1.6812914e+09
1.2343299 -4.0608392 -0.97031915 6 1 1.6812914e+09
2.4631994 -21.87538 5.0660996 18 14 1.6812914e+09
6.6136217 -21.702389 6.0613995 22 15 1.6812914e+09
2.4853954 -22.072748 3.5046039 35 12 1.6812914e+09
4.2557817 -14.076316 2.8490798 34 13 1.6812914e+09
2.4860399 -22.113264 1.9437909 38 10 1.6812914e+09
4.2345066 -14.076749 1.7980599 46 11 1.6812914e+09
2.4776452 -22.108154 0.38770521 45 8 1.6812914e+09
4.2469544 -14.171745 0.77352542 29 9 1.6812914e+09
0.67256963 -6.0091119 -0.31611171 2 6 1.6812914e+09
3.1645398 -10.57726 -0.19210735 16 7 1.6812914e+09
0.66458327 -5.965847 -0.7316978 4 4 1.6812914e+09
2.9314322 -9.7993279 -0.89004201 32 5 1.6812914e+09
0.62542379 -5.6401982 -1.094229 19 2 1.6812914e+09
2.7679708 -9.2363062 -1.5233932 8 3 1.6812914e+09
0.61242437 -5.5580463 -1.4878868 28 0 1.6812914e+09
1.2180388 -4.0581255 -0.96863461 6 1 1.6812914e+09
2.3898513 -21.876162 5.0644145 19 14 1.6812914e+09
6.560432 -21.786634 6.0788469 9 15 1.6812914e+09
2.4105778 -22.066139 3.5022626 36 12 1.6812914e+09
4.201345 -14.064487 2.8438373 36 13 1.6812914e+09
2.4053326 -22.089621 1.9409583 35 10 1.6812914e+09
4.1910019 -14.110474 1.800494 45 11 1.6812914e+09
2.4053981 -22.126186 0.38787973 48 8 1.6812914e+09
4.2105784 -14.221657 0.77548802 42 9 1.6812914e+09
nan nan nan 0 6 1.6812914e+09
3.1680174 -10.724867 -0.19459432 13 7 1.6812914e+09
0.6477204 -5.9951563 -0.73504448 1 4 1.6812914e+09
2.8982134 -9.8066072 -0.88982451 46 5 1.6812914e+09
0.60364228 -5.6228247 -1.0904198 20 2 1.6812914e+09
2.727293 -9.2175055 -1.518695 8 3 1.6812914e+09
0.59123182 -5.5433397 -1.4833603 35 0 1.6812914e+09
1.2017943 -4.052803 -0.96638846 6 1 1.6812914e+09
2.3127069 -21.877102 5.0627298 19 14 1.6812914e+09
6.4981174 -21.855696 6.0917711 9 15 1.6812914e+09
2.3325002 -22.064596 3.5007017 28 12 1.6812914e+09
4.1466651 -14.060238 2.8400247 34 13 1.6812914e+09
2.3333738 -22.109859 1.9420478 38 10 1.6812914e+09
4.1550016 -14.170254 1.8062744 59 11 1.6812914e+09
2.3297164 -22.149364 0.38814151 49 8 1.6812914e+09
4.1342669 -14.145215 0.7705161 46 9 1.6812914e+09
0.66052198 -6.2891593 -0.33068329 4 6 1.6812914e+09
3.1298609 -10.733461 -0.19455069 8 7 1.6812914e+09
0.63064772 -6.0344019 -0.73960805 2 4 1.6812914e+09
6.2630515 -21.462082 -1.9490463 11 5 1.6812914e+09
0.5845167 -5.6297803 -1.091372 20 2 1.6812914e+09
2.6909406 -9.2127495 -1.5163459 9 3 1.6812914e+09
0.57237238 -5.5501747 -1.4846536 42 0 1.6812914e+09
1.1848722 -4.0501685 -0.96470392 11 1 1.6812914e+09
2.2360804 -21.882622 5.0621686 19 14 1.6812914e+09
6.4415259 -21.945442 6.1105108 38 15 1.6812914e+09
2.2552154 -22.070148 3.5003111 36 12 1.6812914e+09
4.1071754 -14.107612 2.8466969 36 13 1.6812914e+09
2.2508087 -22.103397 1.9407406 30 10 1.6812914e+09
4.0986071 -14.160838 1.8032321 41 11 1.6812914e+09
2.2442324 -22.115479 0.38739979 38 8 1.6812914e+09
4.0927792 -14.196252 0.77247864 42 9 1.6812914e+09
0.61989725 -6.1176648 -0.32149401 2 6 1.6812914e+09
3.1145298 -10.821179 -0.19594689 16 7 1.6812914e+09
0.61026359 -6.0539556 -0.74173772 6 4 1.6812914e+09
6.1736107 -21.433558 -1.9444797 11 5 1.6812914e+09
0.56559408 -5.639112 -1.0928005 16 2 1.6812914e+09
2.6601357 -9.2268314 -1.5171289 9 3 1.6812914e+09
0.55275655 -5.5497355 -1.4840069 41 0 1.6812914e+09
1.1734409 -4.0636387 -0.96695 36 1 1.6812914e+09
2.1541913 -21.873697 5.0582376 19 14 1.6812914e+09
6.3455892 -21.915552 6.0956483 34 15 1.6812914e+09
2.1726165 -22.061064 3.4975798 38 12 1.6812914e+09
4.0540848 -14.117854 2.8457437 45 13 1.6812914e+09
2.1731529 -22.106161 1.9403046 35 10 1.6812914e+09
4.0234928 -14.094646 1.7928879 39 11 1.6812914e+09
2.1314726 -21.759972 0.38102967 70 8 1.6812914e+09
4.0637193 -14.282485 0.7764039 35 9 1.6812914e+09
nan nan nan 0 6 1.6812914e+09
3.1834345 -11.207045 -0.20275331 16 7 1.6812914e+09
0.5891276 -6.0560489 -0.74173772 6 4 1.6812914e+09
4.3235364 -15.214755 -1.3780103 6 5 1.6812914e+09
0.5437457 -5.628933 -1.0904198 19 2 1.6812914e+09
2.6202121 -9.215147 -1.5136052 11 3 1.6812914e+09
0.53361124 -5.5540352 -1.4846536 27 0 1.6812914e+09
1.1565679 -4.058342 -0.96470392 47 1 1.6812914e+09
2.0773644 -21.876232 5.0571146 21 14 1.6812914e+09
6.2584262 -21.900417 6.085309 35 15 1.6812914e+09
2.0958292 -22.070971 3.4979701 36 12 1.6812914e+09
4.0094681 -14.148446 2.8490798 39 13 1.6812914e+09
2.094331 -22.096258 1.9387795 34 10 1.6812914e+09
3.9668596 -14.082333 1.7895412 53 11 1.6812914e+09
2.0590248 -21.804604 0.38168409 1 8 1.6812914e+09
5.9966478 -21.350651 1.1604189 12 9 1.6812914e+09
nan nan nan 0 6 1.6812914e+09
3.2165799 -11.475594 -0.20742182 19 7 1.6812914e+09
0.56798446 -6.0580683 -0.74173772 6 4 1.6812914e+09
4.273766 -15.241744 -1.3790975 4 5 1.6812914e+09
0.52432048 -5.6332397 -1.0908959 18 2 1.6812914e+09
2.5920382 -9.2384996 -1.5159543 11 3 1.6812914e+09
0.51399893 -5.5534592 -1.4840069 25 0 1.6812914e+09
1.1423948 -4.0623546 -0.96470392 55 1 1.6812914e+09
1.9998814 -21.87122 5.054307 21 14 1.6812914e+09
6.1661983 -21.866348 6.0698004 30 15 1.6812914e+09
2.0174263 -22.063396 3.4956284 35 12 1.6812914e+09
3.9547632 -14.14345 2.8452671 38 13 1.6812914e+09
2.0167358 -22.098475 1.9383438 29 10 1.6812914e+09
3.9307892 -14.133657 1.794409 43 11 1.6812914e+09
1.9858396 -21.844021 0.38225132 1 8 1.6812914e+09
5.9207501 -21.366644 1.1601572 88 9 1.6812914e+09
0.52318013 -5.7632937 -0.30245903 3 6 1.6812914e+09
3.2198682 -11.643333 -0.21025786 20 7 1.6812914e+09
0.54683435 -6.0600142 -0.74173772 6 4 1.6812914e+09
3.3504102 -12.114738 -1.0944493 30 5 1.6812914e+09
0.50541854 -5.6325035 -1.0904198 16 2 1.6812914e+09
2.5554454 -9.2256308 -1.5124305 6 3 1.6812914e+09
0.49439716 -5.552814 -1.4833603 21 0 1.6812914e+09
1.1262457 -4.0592775 -0.96301931 50 1 1.6812914e+09
1.9281971 -21.887438 5.0565534 22 14 1.6812914e+09
6.0793924 -21.835497 6.055584 30 15 1.6812914e+09
1.9438173 -22.065044 3.4948483 36 12 1.6812914e+09
3.8986876 -14.123369 2.8385947 36 13 1.6812914e+09
1.9395854 -22.105379 1.9383438 36 10 1.6812914e+09
3.9116645 -14.25736 1.8084041 57 11 1.6812914e+09
1.9249377 -21.982462 0.38456374 1 8 1.6812914e+09
5.8452492 -21.369305 1.1592414 87 9 1.6812914e+09
0.50211507 -5.7426124 -0.30127755 3 6 1.6812914e+09
3.2174127 -11.794356 -0.21278846 20 7 1.6812914e+09
0.52630746 -6.0568495 -0.74112928 7 4 1.6812914e+09
5.8669958 -21.478203 -1.9410003 3 5 1.6812914e+09
0.48470399 -5.6220069 -1.0880389 19 2 1.6812914e+09
nan nan nan 0 3 1.6812914e+09
0.47521624 -5.5569124 -1.4840069 18 0 1.6812914e+09
1.1134247 -4.0653386 -0.96358085 45 1 1.6812914e+09
1.8509636 -21.884327 5.054307 22 14 1.6812914e+09
nan nan nan 0 15 1.6812914e+09
1.8657445 -22.059395 3.4928968 38 12 1.6812914e+09
3.8364534 -14.089537 2.8290627 33 13 1.6812914e+09
1.865015 -22.096802 1.9370364 36 10 1.6812914e+09
3.8553843 -14.246978 1.8053617 55 11 1.6812914e+09
1.834388 -21.824652 0.38168409 1 8 1.6812914e+09
5.7602072 -21.351011 1.1571479 89 9 1.6812914e+09
0.47977817 -5.7169642 -0.29983354 13 6 1.6812914e+09
3.1983337 -11.887574 -0.21427192 15 7 1.6812914e+09
0.50454545 -6.0512319 -0.74021655 7 4 1.6812914e+09
5.7739801 -21.446657 -1.9362165 11 5 1.6812914e+09
0.46547958 -5.6285563 -1.0889912 13 2 1.6812914e+09
1.8808048 -6.9834161 -1.1412724 2 3 1.6812914e+09
0.45502967 -5.5489101 -1.4814204 13 0 1.6812914e+09
1.0972419 -4.0646892 -0.96245778 59 1 1.6812914e+09
1.7747583 -21.893084 5.0548687 26 14 1.6812914e+09
nan nan nan 0 15 1.6812914e+09
1.7889309 -22.068233 3.4932871 36 12 1.6812914e+09
3.7802389 -14.076775 2.8238204 39 13 1.6812914e+09
1.7842138 -22.105968 1.9372542 41 10 1.6812914e+09
3.791537 -14.207607 1.7986684 42 11 1.6812914e+09
1.7759877 -22.100321 0.38639626 1 8 1.6812914e+09
5.6787043 -21.359917 1.1564938 88 9 1.6812914e+09
0.45623523 -5.6863322 -0.29812694 45 6 1.6812914e+09
5.6807337 -21.397579 -0.38582906 90 7 1.6812914e+09
0.48236319 -6.05304 -0.74021655 7 4 1.6812914e+09
5.6882095 -21.42576 -1.9325196 12 5 1.6812914e+09
0.44621545 -5.6350403 -1.0899435 18 2 1.6812914e+09
1.8532399 -6.9780087 -1.1393148 2 3 1.6812914e+09
0.43641046 -5.5600944 -1.4840069 11 0 1.6812914e+09
1.081159 -4.0614347 -0.96077317 67 1 1.6812914e+09
1.694129 -21.894583 5.0537457 23 14 1.6812914e+09
nan nan nan 0 15 1.6812914e+09
1.7074639 -22.067257 3.4921167 34 12 1.6812914e+09
3.7254763 -14.078672 2.8214374 38 13 1.6812914e+09
1.7056981 -22.094681 1.935729 33 10 1.6812914e+09
3.7469773 -14.239951 1.8011023 38 11 1.6812914e+09
1.702659 -22.156231 0.38726887 1 8 1.6812914e+09
5.6015754 -21.369949 1.1559703 90 9 1.6812914e+09
0.43524206 -5.6729541 -0.29733929 40 6 1.6812914e+09
5.5996737 -21.393099 -0.38539276 84 7 1.6812914e+09
0.46066782 -6.0472636 -0.73930383 7 4 1.6812914e+09
5.6077051 -21.423805 -1.9305626 11 5 1.6812914e+09
0.42543611 -5.6218801 -1.0870866 18 2 1.6812914e+09
1.8301247 -6.9892116 -1.1400979 1 3 1.6812914e+09
0.41646001 -5.5543594 -1.4820671 9 0 1.6812914e+09
1.0669754 -4.0651841 -0.96077317 70 1 1.6812914e+09
1.6216942 -21.90251 5.054307 23 14 1.6812914e+09
5.5110288 -20.921101 5.779654 26 15 1.6812914e+09
1.6335483 -22.062946 3.4905558 35 12 1.6812914e+09
3.6818728 -14.102821 2.8238204 45 13 1.6812914e+09
1.6283802 -22.098017 1.9355111 40 10 1.6812914e+09
3.7190814 -14.337005 1.8117508 39 11 1.6812914e+09
1.6273463 -22.136826 0.38683257 1 8 1.6812914e+09
5.5250497 -21.366657 1.1547928 89 9 1.6812914e+09
0.4156996 -5.6644063 -0.29681417 40 6 1.6812914e+09
5.5205884 -21.395571 -0.38508731 87 7 1.6812914e+09
0.44061184 -6.0487576 -0.73930383 7 4 1.6812914e+09
5.5335145 -21.430225 -1.9294752 11 5 1.6812914e+09
0.40967923 -5.6771846 -1.0975622 7 2 1.6812914e+09
2.3897164 -9.2520905 -1.5096899 11 3 1.6812914e+09
0.39604074 -5.541326 -1.4781872 9 0 1.6812914e+09
1.0528758 -4.0663419 -0.96021175 80 1 1.6812914e+09
1.545059 -21.905607 5.0537457 23 14 1.6812914e+09
5.4349294 -20.928524 5.7764235 29 15 1.6812914e+09
1.5558299 -22.058659 3.4889946 35 12 1.6812914e+09
3.6454828 -14.165494 2.8338289 47 13 1.6812914e+09
1.554044 -22.088388 1.9342037 43 10 1.6812914e+09
3.6825531 -14.402786 1.8184441 40 11 1.6812914e+09
1.478052 -21.112545 0.36881295 1 8 1.6812914e+09
5.4467297 -21.371298 1.1540078 87 9 1.6812914e+09
0.39523146 -5.6558614 -0.29628909 32 6 1.6812914e+09
5.4409375 -21.395332 -0.3847383 89 7 1.6812914e+09
0.41846943 -6.0354061 -0.73747838 7 4 1.6812914e+09
5.4530888 -21.443123 -1.9288229 8 5 1.6812914e+09
0.38935763 -5.6712346 -1.0961337 9 2 1.6812914e+09
2.3604574 -9.2723398 -1.5116477 11 3 1.6812914e+09
0.37685847 -5.545084 -1.4788339 8 0 1.6812914e+09
1.0361508 -4.0630937 -0.95852709 81 1 1.6812914e+09
1.4680967 -21.903576 5.0520611 26 14 1.6812914e+09
5.3540502 -20.916952 5.7680225 1 15 1.6812914e+09
1.4788214 -22.063955 3.4889946 36 12 1.6812914e+09
3.6038671 -14.209055 2.8400247 43 13 1.6812914e+09
1.4734066 -22.098907 1.9346397 55 10 1.6812914e+09
4.4468904 -17.644434 2.2267344 29 11 1.6812914e+09
0.38783634 -5.8286648 0.10135484 2 8 1.6812914e+09
5.3616734 -21.364481 1.1525686 89 9 1.6812914e+09
0.3740066 -5.6497984 -0.29589525 9 6 1.6812914e+09
5.3625717 -21.399647 -0.38447648 86 7 1.6812914e+09
0.39650765 -6.0393758 -0.73778266 6 4 1.6812914e+09
5.3800225 -21.469275 -1.9294752 6 5 1.6812914e+09
0.36717683 -5.6358228 -1.0889912 16 2 1.6812914e+09
2.3268728 -9.2757339 -1.5108646 11 3 1.6812914e+09
0.35688192 -5.536726 -1.4762474 7 0 1.6812914e+09
1.0231544 -4.0714102 -0.95965016 82 1 1.6812914e+09
1.3876524 -21.906376 5.0514998 26 14 1.6812914e+09
5.26967 -20.905994 5.7596221 30 15 1.6812914e+09
1.3976312 -22.064301 3.4882145 27 12 1.6812914e+09
3.5636716 -14.269785 2.8495564 41 13 1.6812914e+09
1.395474 -22.091486 1.9335501 45 10 1.6812914e+09
4.3791995 -17.648577 2.2252133 46 11 1.6812914e+09
0.3634187 -5.7651205 0.10022043 2 8 1.6812914e+09
5.282866 -21.366104 1.1516527 86 9 1.6812914e+09
0.35381648 -5.6435943 -0.29550144 4 6 1.6812914e+09
5.2830443 -21.398825 -0.38412747 86 7 1.6812914e+09
0.37450457 -6.0258627 -0.73595715 4 4 1.6812914e+09
2.9994893 -12.157624 -1.0903177 40 5 1.6812914e+09
0.34591877 -5.6273322 -1.0870866 41 2 1.6812914e+09
1.9286598 -7.8125353 -1.2704731 1 3 1.6812914e+09
0.3381376 -5.5475798 -1.4788339 6 0 1.6812914e+09
1.0083482 -4.0725927 -0.95908862 80 1 1.6812914e+09
1.310595 -21.90136 5.0492535 26 14 1.6812914e+09
5.1920004 -20.905512 5.7544522 32 15 1.6812914e+09
1.3206038 -22.069044 3.4882145 34 12 1.6812914e+09
3.5202966 -14.30835 2.8547988 38 13 1.6812914e+09
1.3183517 -22.096222 1.9335501 46 10 1.6812914e+09
4.3429289 -17.767399 2.2382956 49 11 1.6812914e+09
0.34107536 -5.7289252 0.099565975 8 8 1.6812914e+09
5.2041135 -21.367435 1.1507368 84 9 1.6812914e+09
0.33323395 -5.6298413 -0.29471377 18 6 1.6812914e+09
5.202404 -21.392845 -0.38369113 87 7 1.6812914e+09
0.3505767 -5.9775891 -0.72987241 3 4 1.6812914e+09
2.9523203 -12.148661 -1.0885781 42 5 1.6812914e+09
0.32570851 -5.6187048 -1.0851818 46 2 1.6812914e+09
1.8931901 -7.785635 -1.2649918 8 3 1.6812914e+09
0.31849539 -5.5439048 -1.4775407 7 0 1.6812914e+09
0.99528587 -4.0808201 -0.96021175 79 1 1.6812914e+09
1.2348214 -21.917965 5.0520611 27 14 1.6812914e+09
5.1161232 -20.911781 5.7512212 30 15 1.6812914e+09
1.2431445 -22.066124 3.4870439 35 12 1.6812914e+09
3.4772747 -14.349172 2.8605182 30 13 1.6812914e+09
1.2409347 -22.095718 1.9331144 47 10 1.6812914e+09
4.3099523 -17.903067 2.2535076 49 11 1.6812914e+09
0.3209365 -5.7275858 0.099522345 14 8 1.6812914e+09
5.1242499 -21.363621 1.1495593 90 9 1.6812914e+09
0.31344205 -5.6284771 -0.29458249 36 6 1.6812914e+09
5.1247845 -21.398724 -0.38347298 88 7 1.6812914e+09
0.31122351 -5.6418104 -0.6884957 4 4 1.6812914e+09
5.1276197 -21.410603 -1.9192549 14 5 1.6812914e+09
0.30529726 -5.6051035 -1.0823249 32 2 1.6812914e+09
1.8642725 -7.7849936 -1.2638173 6 3 1.6812914e+09
0.29940024 -5.5498052 -1.4788339 9 0 1.6812914e+09
0.98103505 -4.0842695 -0.96021175 83 1 1.6812914e+09
1.1583059 -21.92214 5.0520611 32 14 1.6812914e+09
5.0391331 -20.91308 5.7466979 30 15 1.6812914e+09
1.1661117 -22.07033 3.4870439 38 12 1.6812914e+09
3.4437075 -14.430442 2.8743393 25 13 1.6812914e+09
1.1643217 -22.109863 1.9339858 46 10 1.6812914e+09
4.287539 -18.087008 2.2748044 49 11 1.6812914e+09
0.29950729 -5.7012119 0.099042401 30 8 1.6812914e+09
5.0444775 -21.359512 1.1483817 87 9 1.6812914e+09
0.29288763 -5.6120849 -0.29366356 43 6 1.6812914e+09
5.0471864 -21.404316 -0.38325483 86 7 1.6812914e+09
0.28885528 -5.5908213 -0.68210667 12 4 1.6812914e+09
5.0534239 -21.430798 -1.9194723 13 5 1.6812914e+09
0.28461242 -5.5840755 -1.0780394 26 2 1.6812914e+09
1.844471 -7.8226919 -1.2689071 1 3 1.6812914e+09
0.28002599 -5.550817 -1.4788339 7 0 1.6812914e+09
0.96958888 -4.0995193 -0.96301931 68 1 1.6812914e+09
1.084761 -21.908831 5.0481305 36 14 1.6812914e+09
4.9669628 -20.917927 5.7434669 27 15 1.6812914e+09
1.0925516 -22.066673 3.4858727 26 12 1.6812914e+09
3.4368973 -14.616165 2.9091306 18 13 1.6812914e+09
1.0895259 -22.083752 1.9313713 46 10 1.6812914e+09
4.2636933 -18.255764 2.2942758 45 11 1.6812914e+09
0.27986708 -5.6871939 0.098780617 39 8 1.6812914e+09
4.972486 -21.37126 1.14812 88 9 1.6812914e+09
0.27403349 -5.6080384 -0.29340103 45 6 1.6812914e+09
4.9673495 -21.399893 -0.38286215 90 7 1.6812914e+09
0.26948053 -5.5743985 -0.679977 35 4 1.6812914e+09
3.5311739 -15.218575 -1.3610488 4 5 1.6812914e+09
0.26551321 -5.572731 -1.0756586 11 2 1.6812914e+09
2.1562335 -9.2788572 -1.5049918 11 3 1.6812914e+09
nan nan nan 0 0 1.6812914e+09
0.95638317 -4.1076226 -0.96414238 30 1 1.6812914e+09
1.0076076 -21.897879 5.0447612 38 14 1.6812914e+09
4.8878627 -20.909269 5.7363586 26 15 1.6812914e+09
1.0155178 -22.070353 3.4858727 34 12 1.6812914e+09
3.4407177 -14.864759 2.9563136 67 13 1.6812914e+09
1.0095984 -22.109987 1.9333322 49 10 1.6812914e+09
3.4664636 -15.083339 1.8932872 19 11 1.6812914e+09
0.25822994 -5.6707025 0.098475195 40 8 1.6812914e+09
4.8913364 -21.377174 1.1474658 71 9 1.6812914e+09
0.25314134 -5.6015229 -0.29300719 45 6 1.6812914e+09
4.8892765 -21.402481 -0.38260034 86 7 1.6812914e+09
0.24882756 -5.5703907 -0.6793685 41 4 1.6812914e+09
3.483026 -15.252659 -1.3630059 4 5 1.6812914e+09
0.24380204 -5.5221343 -1.065659 9 2 1.6812914e+09
2.123831 -9.2863274 -1.5049918 11 3 1.6812914e+09
nan nan nan 0 0 1.6812914e+09
0.94313252 -4.115684 -0.96526545 4 1 1.6812914e+09
0.92713535 -21.896557 5.0436382 33 14 1.6812914e+09
4.8074017 -20.910568 5.7318349 32 15 1.6812914e+09
0.93472344 -22.076395 3.4862633 33 12 1.6812914e+09
3.4211168 -15.030409 2.9868155 34 13 1.6812914e+09
0.93230927 -22.110891 1.9331144 56 10 1.6812914e+09
3.4094071 -15.075985 1.8908532 22 11 1.6812914e+09
0.2381212 -5.6640763 0.098344304 34 8 1.6812914e+09
3.494477 -15.527013 0.83227247 15 9 1.6812914e+09
0.23327708 -5.5948887 -0.29261336 45 6 1.6812914e+09
4.8106971 -21.402346 -0.38229492 88 7 1.6812914e+09
0.22948308 -5.5737047 -0.67967278 34 4 1.6812914e+09
3.4215629 -15.228277 -1.3597441 6 5 1.6812914e+09
0.22393119 -5.5082378 -1.0628021 7 2 1.6812914e+09
nan nan nan 0 3 1.6812914e+09
0.23374455 -5.8526611 -1.5590155 12 0 1.6812914e+09
0.93091422 -4.1284547 -0.96751153 4 1 1.6812914e+09
0.8537603 -21.880039 5.0391459 36 14 1.6812914e+09
4.7353649 -20.914619 5.7286043 32 15 1.6812914e+09
0.86151034 -22.079372 3.4862633 34 12 1.6812914e+09
3.428225 -15.295497 3.0373344 42 13 1.6812914e+09
0.85502613 -22.111521 1.9328965 71 10 1.6812914e+09
3.3772666 -15.179832 1.9024143 52 11 1.6812914e+09
0.21914522 -5.6598396 0.098257035 8 8 1.6812914e+09
3.4283671 -15.47271 0.82873988 20 9 1.6812914e+09
0.21472248 -5.5956316 -0.29261336 45 6 1.6812914e+09
4.7365003 -21.421448 -0.38233855 35 7 1.6812914e+09
0.21071947 -5.5669961 -0.67875999 11 4 1.6812914e+09
3.3737383 -15.251698 -1.3608313 6 5 1.6812914e+09
0.20569645 -5.535965 -1.06804 4 2 1.6812914e+09
1.8963566 -8.5681267 -1.3859706 11 3 1.6812914e+09
0.21409856 -5.8751612 -1.5648352 12 0 1.6812914e+09
0.91668808 -4.1291413 -0.96695 4 1 1.6812914e+09
0.77625769 -21.851234 5.031846 29 14 1.6812914e+09
4.6586514 -20.914522 5.724081 33 15 1.6812914e+09
0.78364646 -22.060036 3.4827514 32 12 1.6812914e+09
3.4330122 -15.570981 3.0897601 41 13 1.6812914e+09
0.78204811 -22.124191 1.933768 40 10 1.6812914e+09
3.4034007 -15.55269 1.947746 61 11 1.6812914e+09
0.19868946 -5.6405849 0.09790799 3 8 1.6812914e+09
3.3668847 -15.450434 0.82690805 19 9 1.6812914e+09
0.19493002 -5.5888624 -0.29221955 45 6 1.6812914e+09
3.5027165 -16.113359 -0.28722298 28 7 1.6812914e+09
0.19145459 -5.5726571 -0.6793685 4 4 1.6812914e+09
3.3305285 -15.322366 -1.3660502 4 5 1.6812914e+09
0.18555309 -5.5121202 -1.0632783 4 2 1.6812914e+09
1.8680164 -8.5819321 -1.3871452 11 3 1.6812914e+09
0.19319512 -5.8638048 -1.5616021 12 0 1.6812914e+09
0.90363532 -4.1419921 -0.96919614 4 1 1.6812914e+09
0.69919991 -21.82946 5.0262308 21 14 1.6812914e+09
4.5845823 -20.92594 5.7227883 25 15 1.6812914e+09
0.70056581 -21.872591 3.452704 35 12 1.6812914e+09
3.3890524 -15.630833 3.0992918 38 13 1.6812914e+09
0.69859368 -22.052231 1.9272313 34 10 1.6812914e+09
3.3804526 -15.710019 1.9660004 48 11 1.6812914e+09
0.17801435 -5.6412754 0.09790799 3 8 1.6812914e+09
3.3238401 -15.526139 0.83030993 34 9 1.6812914e+09
0.17413606 -5.5795574 -0.29169443 43 6 1.6812914e+09
3.4454024 -16.120598 -0.28713569 27 7 1.6812914e+09
0.17072712 -5.5634003 -0.67815155 4 4 1.6812914e+09
4.5873456 -21.456432 -1.9127313 9 5 1.6812914e+09
0.16653077 -5.5200934 -1.0647067 7 2 1.6812914e+09
nan nan nan 0 3 1.6812914e+09
0.17300694 -5.8740983 -1.5641885 12 0 1.6812914e+09
0.89122581 -4.1546459 -0.97144222 3 1 1.6812914e+09
0.61959958 -21.846489 5.0296001 11 14 1.6812914e+09
4.505311 -20.930796 5.7195568 28 15 1.6812914e+09
0.62144119 -21.912039 3.4585574 30 12 1.6812914e+09
3.3977778 -15.95277 3.1607723 30 13 1.6812914e+09
0.61692464 -21.887737 1.9126328 77 10 1.6812914e+09
3.3834774 -16.008764 2.0019009 43 11 1.6812914e+09
0.15783605 -5.624372 0.097602576 6 8 1.6812914e+09
3.3499327 -15.918742 0.85072088 69 9 1.6812914e+09
0.15445349 -5.5726447 -0.29130059 41 6 1.6812914e+09
3.3978579 -16.17411 -0.28787741 25 7 1.6812914e+09
0.1512395 -5.561482 -0.67784727 4 4 1.6812914e+09
4.5037045 -21.430883 -1.9090346 12 5 1.6812914e+09
0.14668296 -5.5353875 -1.0675638 9 2 1.6812914e+09
1.9567569 -9.3078241 -1.5026426 15 3 1.6812914e+09
0.15250146 -5.8746667 -1.5641885 12 0 1.6812914e+09
0.878739 -4.1672645 -0.97368836 2 1 1.6812914e+09
nan nan nan 0 14 1.6812914e+09
4.4282174 -20.927496 5.7143879 27 15 1.6812914e+09
0.54519492 -21.92395 3.4601183 1 12 1.6812914e+09
3.4181061 -16.327225 3.2327383 19 13 1.6812914e+09
0.54082483 -21.902208 1.9137223 22 10 1.6812914e+09
3.3861935 -16.302292 2.0371928 42 11 1.6812914e+09
0.13802047 -5.6173921 0.097471684 40 8 1.6812914e+09
