# .PCD v0.7 - Point Cloud Data file format
VERSION 0.7
FIELDS x y z intensity ring timestamp
SIZE 4 4 4 4 2 8
TYPE F F F F U F
COUNT 1 1 1 1 1 1
WIDTH 942
HEIGHT 1
VIEWPOINT 0 0 0 1 0 0 0
POINTS 942
DATA ascii
6.5984812 -7.2127876 -0.17003006 54 7 1.6812926e+09
4.9558587 -7.8848414 -1.1375543 41 4 1.6812926e+09
6.6031299 -7.2178826 -0.85111761 42 5 1.6812926e+09
4.23631 -6.7473788 -1.538968 18 2 1.6812926e+09
6.6120915 -7.2201233 -1.5468842 29 3 1.6812926e+09
2.9204051 -4.6576571 -1.4626682 17 0 1.6812926e+09
4.2620087 -4.646656 -1.4453713 21 1 1.6812926e+09
4.9373813 -7.8920479 2.1377344 42 14 1.6812926e+09
6.6092958 -7.2045631 2.6067896 51 15 1.6812926e+09
4.9442315 -7.9030252 1.4676334 82 12 1.6812926e+09
6.5880952 -7.2116332 1.8901724 48 13 1.6812926e+09
4.9453664 -7.9079213 0.81294513 73 10 1.6812926e+09
6.5677304 -7.2120132 1.191709 51 11 1.6812926e+09
4.9328437 -7.8940296 0.16187106 50 8 1.6812926e+09
6.5644364 -7.221015 0.50962138 49 9 1.6812926e+09
4.9280267 -7.8924484 -0.4874264 44 6 1.6812926e+09
6.5614924 -7.2228312 -0.16972464 49 7 1.6812926e+09
4.9256797 -7.8978806 -1.1369458 41 4 1.6812926e+09
6.5695171 -7.2316737 -0.8500303 41 5 1.6812926e+09
4.1908011 -6.7295232 -1.5313493 21 2 1.6812926e+09
6.5772748 -7.235178 -1.5449265 31 3 1.6812926e+09
2.9143293 -4.6842294 -1.4678413 17 0 1.6812926e+09
4.2605381 -4.6777039 -1.450425 18 1 1.6812926e+09
4.8931046 -7.8823233 2.1304345 54 14 1.6812926e+09
6.5759711 -7.218668 2.6035585 50 15 1.6812926e+09
4.900991 -7.8950562 1.4629506 59 12 1.6812926e+09
6.556282 -7.2273178 1.888266 50 13 1.6812926e+09
4.9098568 -7.9124379 0.81163788 41 10 1.6812926e+09
6.5325251 -7.2238579 1.1898837 54 11 1.6812926e+09
4.9065747 -7.9133248 0.16191469 63 8 1.6812926e+09
6.5241265 -7.2272134 0.50844383 50 9 1.6812926e+09
4.9070187 -7.9202142 -0.48808277 59 6 1.6812926e+09
6.5261889 -7.2345591 -0.16946286 51 7 1.6812926e+09
4.892859 -7.9065852 -1.1357288 41 4 1.6812926e+09
6.5392261 -7.2490158 -0.84937793 41 5 1.6812926e+09
4.1350441 -6.6919093 -1.5194452 21 2 1.6812926e+09
6.5437026 -7.2489328 -1.542969 31 3 1.6812926e+09
2.8878176 -4.6779318 -1.4626682 16 0 1.6812926e+09
4.2490907 -4.6979642 -1.4521096 18 1 1.6812926e+09
4.8605518 -7.8881354 2.1276269 56 14 1.6812926e+09
6.540647 -7.2279043 2.599035 50 15 1.6812926e+09
4.8631277 -7.8923421 1.4594386 75 12 1.6812926e+09
6.5191307 -7.2344418 1.8844533 50 13 1.6812926e+09
4.8640051 -7.8968644 0.80836952 57 10 1.6812926e+09
6.5002375 -7.2362537 1.1883624 57 11 1.6812926e+09
4.8619699 -7.8997459 0.16130385 60 8 1.6812926e+09
6.495121 -7.2432342 0.50805128 56 9 1.6812926e+09
4.8571935 -7.8981605 -0.48571983 51 6 1.6812926e+09
6.4838033 -7.2356935 -0.16898292 58 7 1.6812926e+09
4.8679113 -7.9248829 -1.1360332 41 4 1.6812926e+09
6.5018482 -7.2558303 -0.84763831 41 5 1.6812926e+09
4.1333532 -6.7390618 -1.5270637 21 2 1.6812926e+09
6.5146799 -7.2650795 -1.5417944 31 3 1.6812926e+09
2.8785946 -4.6977797 -1.4659015 17 0 1.6812926e+09
4.2807422 -4.7645469 -1.4683939 19 1 1.6812926e+09
4.8304462 -7.9008961 2.1265039 52 14 1.6812926e+09
6.5121474 -7.2471013 2.5977428 49 15 1.6812926e+09
4.831686 -7.9029489 1.4582679 54 12 1.6812926e+09
6.4840126 -7.2461839 1.8815937 48 13 1.6812926e+09
4.8403053 -7.9201713 0.8090232 62 10 1.6812926e+09
6.4617181 -7.244092 1.1859286 52 11 1.6812926e+09
4.8291554 -7.9081359 0.16112934 60 8 1.6812926e+09
6.4565091 -7.2509522 0.50700456 49 9 1.6812926e+09
4.8269944 -7.9108033 -0.48545727 54 6 1.6812926e+09
6.465157 -7.265748 -0.16915745 51 7 1.6812926e+09
4.8389277 -7.9397068 -1.1357288 42 4 1.6812926e+09
6.4681993 -7.2691822 -0.84655106 41 5 1.6812926e+09
4.0753694 -6.696835 -1.5142072 27 2 1.6812926e+09
6.4777799 -7.2748723 -1.5390538 31 3 1.6812926e+09
2.860925 -4.7057352 -1.4652548 16 0 1.6812926e+09
4.2462301 -4.7594771 -1.4622171 18 1 1.6812926e+09
4.8015747 -7.915627 2.1259425 54 14 1.6812926e+09
6.4835935 -7.2661862 2.5964503 50 15 1.6812926e+09
4.8002295 -7.9134316 1.4570973 57 12 1.6812926e+09
6.4505258 -7.2596054 1.8792108 49 13 1.6812926e+09
4.807466 -7.9284992 0.80815166 58 10 1.6812926e+09
6.4314537 -7.2610335 1.1850159 50 11 1.6812926e+09
4.7989316 -7.9206676 0.16104208 55 8 1.6812926e+09
6.4261951 -7.2678361 0.506612 59 9 1.6812926e+09
4.7954736 -7.9211974 -0.48506343 55 6 1.6812926e+09
6.4186149 -7.266923 -0.16863386 79 7 1.6812926e+09
4.8098993 -7.9544253 -1.1354246 42 4 1.6812926e+09
6.4316149 -7.2816448 -0.84524632 41 5 1.6812926e+09
4.0747929 -6.7488427 -1.5227783 26 2 1.6812926e+09
6.4425287 -7.286346 -1.5367048 31 3 1.6812926e+09
2.8473969 -4.7223949 -1.4671946 16 0 1.6812926e+09
4.2222919 -4.7677178 -1.459971 19 1 1.6812926e+09
4.7739148 -7.9323397 2.1259425 55 14 1.6812926e+09
6.4421644 -7.2707052 2.589988 46 15 1.6812926e+09
4.7687583 -7.9237909 1.4559265 58 12 1.6812926e+09
6.421896 -7.278398 1.8782575 48 13 1.6812926e+09
4.7745242 -7.939662 0.80749792 59 10 1.6812926e+09
6.3962293 -7.2722635 1.1831903 49 11 1.6812926e+09
4.7698689 -7.9382038 0.16104208 62 8 1.6812926e+09
6.3962188 -7.2875905 0.5063504 50 9 1.6812926e+09
4.7587008 -7.9258766 -0.48427579 56 6 1.6812926e+09
6.3882627 -7.2836485 -0.16850297 50 7 1.6812926e+09
4.7756095 -7.9634876 -1.1342077 41 4 1.6812926e+09
6.4045148 -7.3021798 -0.84502888 41 5 1.6812926e+09
4.0373425 -6.7398624 -1.5175405 19 2 1.6812926e+09
6.4121647 -7.303226 -1.5355301 31 3 1.6812926e+09
2.8222222 -4.7177958 -1.4626682 16 0 1.6812926e+09
4.1991835 -4.7751145 -1.4577248 18 1 1.6812926e+09
4.7435613 -7.9476905 2.1253808 58 14 1.6812926e+09
6.413878 -7.2924562 2.5893421 48 15 1.6812926e+09
4.7422142 -7.9454575 1.456707 56 12 1.6812926e+09
6.3903222 -7.2963495 1.8768277 48 13 1.6812926e+09
4.7429543 -7.9498625 0.80684429 55 10 1.6812926e+09
6.3711658 -7.2975264 1.1834946 48 11 1.6812926e+09
4.7370119 -7.9462161 0.16086754 64 8 1.6812926e+09
6.3608942 -7.2985849 0.50556535 48 9 1.6812926e+09
4.736114 -7.9510198 -0.4848009 56 6 1.6812926e+09
6.3529444 -7.2945986 -0.16824119 50 7 1.6812926e+09
4.743978 -7.9737115 -1.1332949 41 4 1.6812926e+09
6.3708034 -7.3151035 -0.84394157 41 5 1.6812926e+09
4.0063477 -6.7440634 -1.5151596 19 2 1.6812926e+09
6.3756151 -7.315515 -1.5331811 31 3 1.6812926e+09
2.7995772 -4.7172327 -1.4594351 16 0 1.6812926e+09
4.184093 -4.7915769 -1.4582864 17 1 1.6812926e+09
4.7108254 -7.9558148 2.1231346 58 14 1.6812926e+09
6.3772564 -7.3020725 2.5848186 43 15 1.6812926e+09
4.718224 -7.9683385 1.4578778 57 12 1.6812926e+09
6.3567572 -7.3093562 1.8744447 44 13 1.6812926e+09
4.717711 -7.9706573 0.80728006 59 10 1.6812926e+09
6.335896 -7.3084769 1.1816692 47 11 1.6812926e+09
4.7079735 -7.9605508 0.16082393 62 8 1.6812926e+09
6.3255715 -7.309422 0.50478023 46 9 1.6812926e+09
4.7070608 -7.965354 -0.4846696 58 6 1.6812926e+09
6.319263 -7.3072805 -0.16802303 44 7 1.6812926e+09
4.7098117 -7.9795361 -1.1317738 41 4 1.6812926e+09
6.3387108 -7.3297663 -0.84307176 42 5 1.6812926e+09
3.9939926 -6.7770391 -1.5194452 22 2 1.6812926e+09
6.348424 -7.3358593 -1.5327895 31 3 1.6812926e+09
2.7941155 -4.7457089 -1.4652548 17 0 1.6812926e+09
4.1593556 -4.7969561 -1.4554788 18 1 1.6812926e+09
4.6916599 -7.9869151 2.1270654 51 14 1.6812926e+09
6.3501458 -7.3224649 2.5841722 54 15 1.6812926e+09
4.6866293 -7.9783707 1.456707 42 12 1.6812926e+09
6.3231802 -7.3222184 1.8720618 49 13 1.6812926e+09
4.6885986 -7.9849296 0.80706221 57 10 1.6812926e+09
6.3054862 -7.3249087 1.1807564 54 11 1.6812926e+09
4.68648 -7.9877176 0.16104208 62 8 1.6812926e+09
6.3000183 -7.3314581 0.50478023 51 9 1.6812926e+09
4.6817522 -7.986043 -0.48493215 57 6 1.6812926e+09
6.2937169 -7.3292947 -0.16802303 54 7 1.6812926e+09
4.685689 -8.0023527 -1.1326865 41 4 1.6812926e+09
6.3000989 -7.3367381 -0.84133214 41 5 1.6812926e+09
3.9950767 -6.8333192 -1.5289685 21 2 1.6812926e+09
6.3082871 -7.3411274 -1.5292659 31 3 1.6812926e+09
2.7799673 -4.7596054 -1.4665481 16 0 1.6812926e+09
4.1425858 -4.8114462 -1.4554788 18 1 1.6812926e+09
4.655169 -7.9885082 2.1231346 44 14 1.6812926e+09
6.313509 -7.3317819 2.5796487 49 15 1.6812926e+09
4.6599941 -7.9968157 1.4570973 66 12 1.6812926e+09
6.2927876 -7.3386593 1.8706321 52 13 1.6812926e+09
4.6644578 -8.0077038 0.80771583 58 10 1.6812926e+09
6.273427 -7.3393335 1.1795396 50 11 1.6812926e+09
4.6573119 -8.0018673 0.16099843 43 8 1.6812926e+09
6.2597952 -7.336318 0.50360268 50 9 1.6812926e+09
4.6513381 -7.9980206 -0.4846696 42 6 1.6812926e+09
6.2616029 -7.3436127 -0.1678485 55 7 1.6812926e+09
4.6527429 -8.0100765 -1.1314695 41 4 1.6812926e+09
6.2712169 -7.3548956 -0.8408972 42 5 1.6812926e+09
3.9576604 -6.8238664 -1.5237306 19 2 1.6812926e+09
6.277813 -7.3574696 -1.5280913 32 3 1.6812926e+09
2.7185655 -4.6919527 -1.4426229 17 0 1.6812926e+09
4.1225967 -4.822176 -1.4543557 17 1 1.6812926e+09
4.6260371 -8.0025997 2.1225731 52 14 1.6812926e+09
6.2784562 -7.3427668 2.5757718 50 15 1.6812926e+09
4.6221681 -7.9959278 1.4539754 52 12 1.6812926e+09
6.2559891 -7.3475051 1.867296 54 13 1.6812926e+09
4.6277575 -8.0088406 0.80619061 40 10 1.6812926e+09
6.2378058 -7.3468614 1.1774099 52 11 1.6812926e+09
4.6281028 -8.0159101 0.1609548 67 8 1.6812926e+09
6.2276897 -7.3505082 0.50307935 58 9 1.6812926e+09
4.6208968 -8.0098829 -0.48440704 62 6 1.6812926e+09
6.2262354 -7.3539839 -0.16758673 64 7 1.6812926e+09
4.6210389 -8.0198183 -1.1305568 41 4 1.6812926e+09
6.2374544 -7.3672409 -0.83980995 41 5 1.6812926e+09
3.9093106 -6.7922783 -1.5137311 21 2 1.6812926e+09
6.2437954 -7.3669496 -1.5257422 33 3 1.6812926e+09
2.6468463 -4.6050844 -1.4128782 22 0 1.6812926e+09
4.0394659 -4.7585835 -1.4307716 15 1 1.6812926e+09
4.5958395 -8.0115566 2.1208887 58 14 1.6812926e+09
6.2384291 -7.3451462 2.5693095 49 15 1.6812926e+09
4.5968561 -8.0133543 1.4543657 56 12 1.6812926e+09
6.2125607 -7.3457327 1.8615767 46 13 1.6812926e+09
4.5972972 -8.0206242 0.80575484 58 10 1.6812926e+09
6.1961193 -7.3496256 1.1743674 52 11 1.6812926e+09
4.591557 -8.0138597 0.16060576 57 8 1.6812926e+09
6.1952376 -7.3615718 0.50242513 49 9 1.6812926e+09
4.5843906 -8.0078278 -0.48335686 50 6 1.6812926e+09
6.1876521 -7.3603721 -0.16723767 47 7 1.6812926e+09
4.5956502 -8.0372524 -1.130861 41 4 1.6812926e+09
6.2001591 -7.372643 -0.83807033 41 5 1.6812926e+09
3.9099042 -6.8485155 -1.5232545 21 2 1.6812926e+09
6.2164516 -7.3868113 -1.5253507 31 3 1.6812926e+09
2.6630311 -4.6709495 -1.430337 18 0 1.6812926e+09
4.0708165 -4.8277903 -1.4476173 19 1 1.6812926e+09
4.5606194 -8.0148449 2.1175194 54 14 1.6812926e+09
6.2065206 -7.3594961 2.5667248 49 15 1.6812926e+09
4.5627513 -8.0186186 1.4524145 59 12 1.6812926e+09
6.1821442 -7.3617392 1.8601469 51 13 1.6812926e+09
4.568213 -8.0314951 0.80531907 62 10 1.6812926e+09
6.1783943 -7.3807192 1.1758885 56 11 1.6812926e+09
4.5623217 -8.0276661 0.16056213 64 8 1.6812926e+09
6.1614943 -7.3735781 0.50177097 60 9 1.6812926e+09
4.5601072 -8.0302944 -0.48375067 56 6 1.6812926e+09
6.1667309 -7.387681 -0.16736858 67 7 1.6812926e+09
4.5614481 -8.0424519 -1.1293398 41 4 1.6812926e+09
6.1699018 -7.3914957 -0.8376354 41 5 1.6812926e+09
3.6284797 -6.4071865 -1.4218311 17 2 1.6812926e+09
6.1605301 -7.3724813 -1.5179119 32 3 1.6812926e+09
2.6871042 -4.7517004 -1.4523222 17 0 1.6812926e+09
4.0186658 -4.8016043 -1.4352638 19 1 1.6812926e+09
4.5290236 -8.0243502 2.115835 56 14 1.6812926e+09
6.1745882 -7.3737135 2.5641401 50 15 1.6812926e+09
4.528667 -8.0237436 1.4504634 60 12 1.6812926e+09
6.1548371 -7.3813901 1.8596704 48 13 1.6812926e+09
4.5338531 -8.039506 0.80444747 60 10 1.6812926e+09
6.1351361 -7.381258 1.172542 46 11 1.6812926e+09
4.5255075 -8.0312662 0.16030034 64 8 1.6812926e+09
6.1264544 -7.3865075 0.50111675 49 9 1.6812926e+09
4.5257459 -8.0382509 -0.48322555 59 6 1.6812926e+09
6.1233482 -7.388001 -0.16688862 78 7 1.6812926e+09
4.530725 -8.0569534 -1.1290357 41 4 1.6812926e+09
6.134521 -7.4014869 -0.83633065 42 5 1.6812926e+09
nan nan nan 0 2 1.6812926e+09
6.1284471 -7.386342 -1.5163459 30 3 1.6812926e+09
2.6681399 -4.7568388 -1.4510289 17 0 1.6812926e+09
4.0268149 -4.845562 -1.4442482 18 1 1.6812926e+09
4.4983926 -8.0387697 2.1152732 55 14 1.6812926e+09
6.1459756 -7.3944378 2.5634937 49 15 1.6812926e+09
4.4992275 -8.040288 1.4504634 60 12 1.6812926e+09
6.1261754 -7.4020085 1.8591937 51 13 1.6812926e+09
4.5021167 -8.0487623 0.80379385 63 10 1.6812926e+09
6.1093335 -7.4026284 1.172542 56 11 1.6812926e+09
4.486474 -8.0273752 0.15990765 70 8 1.6812926e+09
6.0974569 -7.4039941 0.50085509 51 9 1.6812926e+09
4.4952264 -8.0496407 -0.48296303 59 6 1.6812926e+09
6.1022897 -7.4151182 -0.16701952 51 7 1.6812926e+09
4.5037813 -8.0748854 -1.1293398 41 4 1.6812926e+09
6.1038976 -7.4170885 -0.83567834 41 5 1.6812926e+09
3.7603664 -6.7497087 -1.4923037 21 2 1.6812926e+09
6.1120524 -7.4191198 -1.518695 34 3 1.6812926e+09
2.6186652 -4.7070236 -1.4329234 16 0 1.6812926e+09
3.9959099 -4.8426881 -1.4391944 21 1 1.6812926e+09
4.4752574 -8.0600328 2.1169579 56 14 1.6812926e+09
6.1121912 -7.4036088 2.5596166 46 15 1.6812926e+09
4.4713421 -8.0530043 1.4500732 59 12 1.6812926e+09
6.0875611 -7.4052272 1.8549044 46 13 1.6812926e+09
4.4727855 -8.0622501 0.80357599 56 10 1.6812926e+09
6.083456 -7.4239087 1.172542 46 11 1.6812926e+09
4.4610415 -8.0443945 0.1599513 67 8 1.6812926e+09
6.07129 -7.4222426 0.50072426 46 9 1.6812926e+09
4.4612503 -8.0513992 -0.48217538 74 6 1.6812926e+09
6.0716219 -7.4305692 -0.16688862 48 7 1.6812926e+09
4.4697723 -8.0767479 -1.1275144 41 4 1.6812926e+09
6.0776906 -7.4353609 -0.83546084 42 5 1.6812926e+09
3.6691539 -6.6403346 -1.4651622 18 2 1.6812926e+09
6.0782957 -7.4308562 -1.5167373 32 3 1.6812926e+09
2.5555797 -4.6315441 -1.4070585 21 0 1.6812926e+09
3.9736469 -4.8483801 -1.4369484 22 1 1.6812926e+09
4.4494443 -8.0798731 2.1180809 56 14 1.6812926e+09
6.0985651 -7.4398346 2.5647862 48 15 1.6812926e+09
4.4455867 -8.0728903 1.4508537 59 12 1.6812926e+09
6.0849667 -7.4549398 1.8620534 59 13 1.6812926e+09
4.4484267 -8.0814009 0.8040117 63 10 1.6812926e+09
6.0622063 -7.4508715 1.1734548 58 11 1.6812926e+09
4.4365468 -8.0664883 0.16008219 74 8 1.6812926e+09
6.0516434 -7.4511385 0.50124758 57 9 1.6812926e+09
4.4331188 -8.0669222 -0.48217538 72 6 1.6812926e+09
6.0503745 -7.4575391 -0.16701952 60 7 1.6812926e+09
4.4451327 -8.0988293 -1.1284271 41 4 1.6812926e+09
6.040978 -7.4459877 -0.83415616 42 5 1.6812926e+09
3.658921 -6.6767802 -1.4704 21 2 1.6812926e+09
6.0507627 -7.4501128 -1.5163459 33 3 1.6812926e+09
2.5532999 -4.6658621 -1.4148179 19 0 1.6812926e+09
3.9789302 -4.8912416 -1.4453713 22 1 1.6812926e+09
4.4142098 -8.0825272 2.1147118 50 14 1.6812926e+09
6.055779 -7.4404812 2.557678 49 15 1.6812926e+09
4.4150133 -8.0840244 1.4500732 42 12 1.6812926e+09
6.0264392 -7.4361115 1.8520449 43 13 1.6812926e+09
4.4151993 -8.0910931 0.80335808 62 10 1.6812926e+09
6.0033951 -7.4314675 1.1670657 48 11 1.6812926e+09
4.4069514 -8.082695 0.16008219 76 8 1.6812926e+09
6.0023446 -7.4460673 0.49941581 46 9 1.6812926e+09
4.4011345 -8.0787315 -0.48191282 79 6 1.6812926e+09
5.9913573 -7.4377499 -0.16610327 44 7 1.6812926e+09
4.4130483 -8.1107073 -1.1278187 41 4 1.6812926e+09
6.007133 -7.457334 -0.83306879 41 5 1.6812926e+09
3.6683931 -6.7498965 -1.4837327 22 2 1.6812926e+09
6.02317 -7.4692669 -1.5159543 31 3 1.6812926e+09
2.547358 -4.6938524 -1.4206376 18 0 1.6812926e+09
3.9541719 -4.8956304 -1.4425635 19 1 1.6812926e+09
4.389194 -8.1072216 2.1169579 43 14 1.6812926e+09
6.0087271 -7.4382153 2.5492773 50 15 1.6812926e+09
4.3888798 -8.1066666 1.4512439 63 12 1.6812926e+09
5.9837523 -7.439034 1.8472788 49 13 1.6812926e+09
4.3999629 -8.1305513 0.80575484 57 10 1.6812926e+09
5.9680967 -7.4407678 1.1652402 54 11 1.6812926e+09
4.3799 -8.1002293 0.16012582 43 8 1.6812926e+09
5.9669509 -7.4552846 0.49863082 54 9 1.6812926e+09
4.378839 -8.1050291 -0.48256919 46 6 1.6812926e+09
5.9559851 -7.4469104 -0.16584148 55 7 1.6812926e+09
4.3835311 -8.1238775 -1.1275144 41 4 1.6812926e+09
5.9748397 -7.4704814 -0.83219904 41 5 1.6812926e+09
3.669251 -6.8080354 -1.4937321 21 2 1.6812926e+09
5.9877958 -7.4786863 -1.5136052 32 3 1.6812926e+09
2.5641274 -4.7643957 -1.4393898 17 0 1.6812926e+09
3.9492626 -4.9245982 -1.4470558 19 1 1.6812926e+09
4.357676 -8.1131468 2.1147118 54 14 1.6812926e+09
5.9764657 -7.4486842 2.5460463 54 15 1.6812926e+09
4.356133 -8.1102982 1.4492928 56 12 1.6812926e+09
5.9559851 -7.4550023 1.8463256 51 13 1.6812926e+09
4.3727326 -8.1480541 0.8059727 42 10 1.6812926e+09
5.9405403 -7.4596152 1.1649361 55 11 1.6812926e+09
4.3553762 -8.119113 0.16021307 73 8 1.6812926e+09
5.934422 -7.4652615 0.49797657 75 9 1.6812926e+09
4.3542948 -8.1239052 -0.48283175 57 6 1.6812926e+09
5.9315095 -7.4696126 -0.16588512 93 7 1.6812926e+09
4.3518848 -8.1296177 -1.1262975 41 4 1.6812926e+09
5.9422832 -7.4805064 -0.83111173 41 5 1.6812926e+09
3.737972 -6.9939814 -1.5318254 19 2 1.6812926e+09
5.9555035 -7.4918137 -1.5120391 31 3 1.6812926e+09
2.5599809 -4.7967567 -1.4465026 17 0 1.6812926e+09
3.929872 -4.9338593 -1.4459329 18 1 1.6812926e+09
4.3281846 -8.1261578 2.1141503 52 14 1.6812926e+09
5.9368777 -7.4525065 2.5402303 43 15 1.6812926e+09
4.3266363 -8.1232748 1.4489026 58 12 1.6812926e+09
5.9253478 -7.4699812 1.844896 40 13 1.6812926e+09
4.3257995 -8.1251354 0.80226862 56 10 1.6812926e+09
5.9098454 -7.4744682 1.1640232 38 11 1.6812926e+09
4.3199682 -8.1210251 0.1599513 64 8 1.6812926e+09
5.9330902 -7.5172753 0.50007004 37 9 1.6812926e+09
4.3212261 -8.1302366 -0.48230663 51 6 1.6812926e+09
5.9023027 -7.4863477 -0.16579786 39 7 1.6812926e+09
4.3246441 -8.1469517 -1.1266017 42 4 1.6812926e+09
5.9163694 -7.5041914 -0.83132923 41 5 1.6812926e+09
3.6549478 -6.8963799 -1.5075409 19 2 1.6812926e+09
5.9216628 -7.5028696 -1.5100815 31 3 1.6812926e+09
2.5341899 -4.7885847 -1.4413296 17 0 1.6812926e+09
3.8981526 -4.9310398 -1.4408791 17 1 1.6812926e+09
4.2918315 -8.1261358 2.1102195 51 14 1.6812926e+09
5.9707923 -7.548923 2.5660787 32 15 1.6812926e+09
4.2924895 -8.127409 1.4469514 59 12 1.6812926e+09
5.952414 -7.5580735 1.8615767 35 13 1.6812926e+09
4.2948284 -8.1387329 0.80205071 63 10 1.6812926e+09
5.9450455 -7.5730972 1.1761929 38 11 1.6812926e+09
4.2901735 -8.1368036 0.1599513 64 8 1.6812926e+09
5.9332266 -7.5743341 0.50242513 40 9 1.6812926e+09
4.2844186 -8.1327667 -0.48151901 54 6 1.6812926e+09
5.9239259 -7.5678997 -0.16715041 40 7 1.6812926e+09
4.290134 -8.1539612 -1.1253847 42 4 1.6812926e+09
5.8855305 -7.5189171 -0.83067685 41 5 1.6812926e+09
3.4688008 -6.6005635 -1.4399254 15 2 1.6812926e+09
5.8756256 -7.4982376 -1.5049918 32 3 1.6812926e+09
2.5073667 -4.7781525 -1.4355099 16 0 1.6812926e+09
3.8974767 -4.9656839 -1.4470558 19 1 1.6812926e+09
4.2608895 -8.1396542 2.109658 54 14 1.6812926e+09
5.9520364 -7.5821505 2.5699558 35 15 1.6812926e+09
4.2603827 -8.1387119 1.4461709 59 12 1.6812926e+09
5.9352584 -7.5933695 1.8649127 16 13 1.6812926e+09
4.2571592 -8.1360207 0.80030763 57 10 1.6812926e+09
5.920301 -7.5987487 1.1768013 9 11 1.6812926e+09
4.2547989 -8.1384373 0.1596895 62 8 1.6812926e+09
5.9159532 -7.6068192 0.50321019 10 9 1.6812926e+09
4.250227 -8.1366081 -0.48086262 58 6 1.6812926e+09
5.9189606 -7.6161532 -0.16776125 9 7 1.6812926e+09
4.2604985 -8.166687 -1.1250805 42 4 1.6812926e+09
5.8516026 -7.5295854 -0.82958955 42 5 1.6812926e+09
3.6893644 -7.0834494 -1.5427772 23 2 1.6812926e+09
5.8587213 -7.533361 -1.5077324 31 3 1.6812926e+09
2.4906723 -4.7868762 -1.4355099 16 0 1.6812926e+09
3.869628 -4.9658151 -1.4431251 18 1 1.6812926e+09
4.2346945 -8.158802 2.1107812 52 14 1.6812926e+09
6.0161495 -7.7190304 2.6093743 3 15 1.6812926e+09
4.2330847 -8.1557255 1.4465612 59 12 1.6812926e+09
5.9057055 -7.6101656 1.8639598 4 13 1.6812926e+09
4.2264404 -8.146409 0.7998718 59 10 1.6812926e+09
5.8846254 -7.6075959 1.1749759 6 11 1.6812926e+09
4.229815 -8.1598997 0.15982041 71 8 1.6812926e+09
5.8893647 -7.6274233 0.50321019 7 9 1.6812926e+09
4.2183557 -8.144742 -0.48046878 66 6 1.6812926e+09
5.8831711 -7.624898 -0.16749947 8 7 1.6812926e+09
4.227407 -8.1726933 -1.1238635 41 4 1.6812926e+09
5.8191943 -7.5420818 -0.82871979 41 5 1.6812926e+09
3.4777613 -6.7342601 -1.4637337 22 2 1.6812926e+09
5.7946401 -7.5049243 -1.4979445 31 3 1.6812926e+09
2.4772673 -4.801981 -1.4374498 18 0 1.6812926e+09
3.8597307 -4.9889212 -1.4459329 19 1 1.6812926e+09
4.2084179 -8.1778679 2.1119041 55 14 1.6812926e+09
6.0941687 -7.8755445 2.6552548 7 15 1.6812926e+09
4.2057195 -8.1726475 1.4469514 58 12 1.6812926e+09
5.8836017 -7.6365643 1.8653895 4 13 1.6812926e+09
4.1991167 -8.1633282 0.80008966 56 10 1.6812926e+09
5.8761811 -7.6516981 1.1786268 2 11 1.6812926e+09
4.1944523 -8.161273 0.15955862 67 8 1.6812926e+09
5.8657432 -7.6518955 0.50347191 4 9 1.6812926e+09
4.1876192 -8.1549759 -0.48020622 80 6 1.6812926e+09
5.8595619 -7.6493549 -0.16758673 4 7 1.6812926e+09
4.201117 -8.1918163 -1.124472 42 4 1.6812926e+09
5.7807083 -7.5465369 -0.82698011 41 5 1.6812926e+09
3.4866555 -6.8097181 -1.4775425 19 2 1.6812926e+09
5.7894526 -7.5525303 -1.5034257 32 3 1.6812926e+09
2.458292 -4.8062978 -1.4361566 17 0 1.6812926e+09
3.83041 -4.9869165 -1.4414406 18 1 1.6812926e+09
4.1831665 -8.1990175 2.1135888 55 14 1.6812926e+09
6.0106974 -7.8240204 2.6306992 1 15 1.6812926e+09
4.1782885 -8.1894789 1.4473417 60 12 1.6812926e+09
5.8390059 -7.6336722 1.8596704 6 13 1.6812926e+09
4.1751204 -8.1868105 0.80096126 67 10 1.6812926e+09
5.8373928 -7.6563835 1.1761929 3 11 1.6812926e+09
4.1670728 -8.178092 0.15960224 78 8 1.6812926e+09
5.8299198 -7.6604085 0.5026868 4 9 1.6812926e+09
4.1625247 -8.176219 -0.48060009 80 6 1.6812926e+09
5.8146558 -7.6458945 -0.16706316 4 7 1.6812926e+09
4.1691241 -8.1997948 -1.1235594 41 4 1.6812926e+09
5.7513137 -7.562705 -0.82654518 41 5 1.6812926e+09
3.5161624 -6.9269037 -1.5003985 19 2 1.6812926e+09
5.7046981 -7.4960914 -1.4881566 29 3 1.6812926e+09
2.4371345 -4.8062329 -1.4335701 17 0 1.6812926e+09
3.8262868 -5.0176816 -1.4464943 21 1 1.6812926e+09
4.1570539 -8.2150183 2.1141503 44 14 1.6812926e+09
nan nan nan 0 15 1.6812926e+09
4.1466498 -8.1944752 1.4457808 43 12 1.6812926e+09
5.8121734 -7.6510396 1.8591937 7 13 1.6812926e+09
4.1501956 -8.2050562 0.80139703 70 10 1.6812926e+09
5.8074741 -7.6697655 1.1752801 3 11 1.6812926e+09
4.1444387 -8.2007904 0.15977678 90 8 1.6812926e+09
5.79846 -7.6717348 0.50216347 4 9 1.6812926e+09
4.138763 -8.1966639 -0.4809939 90 6 1.6812926e+09
5.7879314 -7.6661453 -0.16706316 6 7 1.6812926e+09
4.1419096 -8.2135744 -1.1235594 42 4 1.6812926e+09
5.718873 -7.5747876 -0.82567537 41 5 1.6812926e+09
3.5152345 -6.9823723 -1.5099218 22 2 1.6812926e+09
5.7319512 -7.5838866 -1.5018598 31 3 1.6812926e+09
2.4225104 -4.8190265 -1.4348633 18 0 1.6812926e+09
3.8058043 -5.0271249 -1.4453713 19 1 1.6812926e+09
4.1316285 -8.2360115 2.115835 57 14 1.6812926e+09
nan nan nan 0 15 1.6812926e+09
4.1224475 -8.2177296 1.4473417 65 12 1.6812926e+09
5.782474 -7.6673632 1.8582405 7 13 1.6812926e+09
4.1279035 -8.2357988 0.80292225 56 10 1.6812926e+09
5.7776828 -7.6860251 1.1746716 4 11 1.6812926e+09
4.1121159 -8.2114544 0.1596895 44 8 1.6812926e+09
5.7628078 -7.6829534 0.50150925 4 9 1.6812926e+09
4.1042256 -8.2028456 -0.48046878 59 6 1.6812926e+09
5.7596364 -7.6843028 -0.16701952 6 7 1.6812926e+09
4.10956 -8.2242603 -1.1229508 42 4 1.6812926e+09
5.6909032 -7.5927124 -0.82545793 41 5 1.6812926e+09
3.4820766 -6.9770308 -1.5061125 23 2 1.6812926e+09
5.6950631 -7.5900288 -1.4991192 31 3 1.6812926e+09
2.3992159 -4.8144832 -1.4309835 16 0 1.6812926e+09
3.7955587 -5.0501103 -1.4481789 19 1 1.6812926e+09
4.0873232 -8.2227383 2.1085351 51 14 1.6812926e+09
nan nan nan 0 15 1.6812926e+09
4.0912013 -8.2305717 1.4469514 44 12 1.6812926e+09
5.7425613 -7.6727939 1.8544278 8 13 1.6812926e+09
4.1024537 -8.2568502 0.80357599 47 10 1.6812926e+09
5.7359676 -7.6862664 1.1716292 4 11 1.6812926e+09
4.0845385 -8.2279978 0.15973315 90 8 1.6812926e+09
5.7299867 -7.6950169 0.50098592 6 9 1.6812926e+09
4.0811119 -8.2283058 -0.48112515 76 6 1.6812926e+09
5.7297916 -7.7003517 -0.16693226 6 7 1.6812926e+09
4.0819278 -8.2407789 -1.123255 41 4 1.6812926e+09
5.6569266 -7.6025443 -0.82437068 41 5 1.6812926e+09
3.4370329 -6.9473429 -1.4970653 22 2 1.6812926e+09
5.6449189 -7.5781903 -1.4928547 32 3 1.6812926e+09
2.385602 -4.8293252 -1.4329234 17 0 1.6812926e+09
3.7720745 -5.0555229 -1.4459329 19 1 1.6812926e+09
4.0600328 -8.2362471 2.1085351 56 14 1.6812926e+09
5.7779241 -7.7397771 2.5751255 1 15 1.6812926e+09
4.0627942 -8.2418785 1.4465612 59 12 1.6812926e+09
5.711226 -7.6839185 1.8525214 8 13 1.6812926e+09
4.0560074 -8.2353687 0.80008966 64 10 1.6812926e+09
5.7105808 -7.7082348 1.1719335 4 11 1.6812926e+09
4.0506091 -8.2280407 0.15947135 73 8 1.6812926e+09
5.6955252 -7.7019358 0.50020087 6 9 1.6812926e+09
4.0504994 -8.2350721 -0.48073134 43 6 1.6812926e+09
5.6999044 -7.7162848 -0.16684499 6 7 1.6812926e+09
4.0502038 -8.2453613 -1.1220381 42 4 1.6812926e+09
5.6242785 -7.6112499 -0.82328343 40 5 1.6812926e+09
3.4322033 -6.9989662 -1.5056363 22 2 1.6812926e+09
5.6272459 -7.6097565 -1.4952039 32 3 1.6812926e+09
2.3814654 -4.8636537 -1.4406829 18 0 1.6812926e+09
3.7669032 -5.0836539 -1.450425 19 1 1.6812926e+09
4.0248437 -8.2372351 2.1051657 54 14 1.6812926e+09
8.2128172 -11.078539 3.6807816 3 15 1.6812926e+09
4.0264144 -8.2404785 1.4438297 59 12 1.6812926e+09
5.6785364 -7.6959109 1.850615 8 13 1.6812926e+09
4.0308609 -8.2532501 0.80052549 63 10 1.6812926e+09
5.6733418 -7.7141337 1.1698039 4 11 1.6812926e+09
4.0251508 -8.2488699 0.15960224 81 8 1.6812926e+09
5.6686058 -7.7217693 0.50020087 4 9 1.6812926e+09
4.0195413 -8.2446728 -0.48046878 63 6 1.6812926e+09
5.6655397 -7.7260594 -0.16662684 6 7 1.6812926e+09
4.0235686 -8.2639093 -1.1226466 41 4 1.6812926e+09
5.5933976 -7.6277976 -0.8228485 41 5 1.6812926e+09
3.4871092 -7.1742625 -1.5408727 24 2 1.6812926e+09
5.5582471 -7.571651 -1.4838499 27 3 1.6812926e+09
2.3455069 -4.8328247 -1.4290438 15 0 1.6812926e+09
3.7424669 -5.0895801 -1.4481789 19 1 1.6812926e+09
3.9950047 -8.2490416 2.1046042 55 14 1.6812926e+09
8.1683655 -11.09936 3.6781967 4 15 1.6812926e+09
3.9965494 -8.2522602 1.4434394 58 12 1.6812926e+09
5.645834 -7.7077694 1.8487087 9 13 1.6812926e+09
3.9951627 -8.2567587 0.79943603 55 10 1.6812926e+09
5.6390591 -7.7238727 1.1682825 6 11 1.6812926e+09
3.99054 -8.2545652 0.15942773 67 8 1.6812926e+09
5.6314402 -7.7303915 0.49941581 15 9 1.6812926e+09
3.9838693 -8.2481089 -0.47981241 65 6 1.6812926e+09
5.6311765 -7.7356882 -0.16640869 7 7 1.6812926e+09
3.9910982 -8.2741327 -1.1220381 41 4 1.6812926e+09
5.5623369 -7.6412373 -0.82219607 41 5 1.6812926e+09
3.2033257 -6.6490521 -1.4251642 23 2 1.6812926e+09
5.5550656 -7.6229229 -1.4901141 27 3 1.6812926e+09
2.3139772 -4.8105097 -1.4199909 16 0 1.6812926e+09
3.7289915 -5.1085124 -1.4498636 19 1 1.6812926e+09
3.9615834 -8.2570381 2.1029198 55 14 1.6812926e+09
8.1333303 -11.137025 3.6807816 6 15 1.6812926e+09
3.9694798 -8.2735338 1.4446101 60 12 1.6812926e+09
5.6189895 -7.7303948 1.8491853 9 13 1.6812926e+09
3.9663167 -8.2706537 0.79943603 70 10 1.6812926e+09
5.6120629 -7.7435093 1.1682825 6 11 1.6812926e+09
3.9606221 -8.2661896 0.15938409 90 8 1.6812926e+09
5.5971022 -7.7398906 0.49876165 25 9 1.6812926e+09
3.9507437 -8.2529573 -0.4792873 86 6 1.6812926e+09
5.602674 -7.7532721 -0.16636504 7 7 1.6812926e+09
3.9632611 -8.2902517 -1.1223423 41 4 1.6812926e+09
5.5297918 -7.6525354 -0.82132632 41 5 1.6812926e+09
3.1737549 -6.6469035 -1.4223073 23 2 1.6812926e+09
5.5327673 -7.6482677 -1.4912888 33 3 1.6812926e+09
2.3044407 -4.8338194 -1.4245173 16 0 1.6812926e+09
3.7082751 -5.1175542 -1.4487404 18 1 1.6812926e+09
3.9394112 -8.2811308 2.1057274 56 14 1.6812926e+09
5.6267424 -7.7610593 2.5557394 2 15 1.6812926e+09
3.9377806 -8.27773 1.4430492 55 12 1.6812926e+09
5.5861373 -7.7390399 1.8468024 10 13 1.6812926e+09
3.9331477 -8.2754488 0.79856443 63 10 1.6812926e+09
5.5748482 -7.7489576 1.1661528 6 11 1.6812926e+09
3.9299724 -8.2725039 0.15925321 90 8 1.6812926e+09
5.5641193 -7.7482724 0.49810746 22 9 1.6812926e+09
3.9244242 -8.2682686 -0.47941861 90 6 1.6812926e+09
5.5682869 -7.7626295 -0.16614689 7 7 1.6812926e+09
3.9336231 -8.2988644 -1.1217338 41 4 1.6812926e+09
5.5029316 -7.6688075 -0.82110882 41 5 1.6812926e+09
nan nan nan 0 2 1.6812926e+09
5.5031543 -7.6635246 -1.4905057 34 3 1.6812926e+09
2.2875538 -4.8418336 -1.4245173 17 0 1.6812926e+09
3.6969817 -5.1377287 -1.4509866 19 1 1.6812926e+09
3.9156721 -8.305851 2.1085351 55 14 1.6812926e+09
5.6080875 -7.7924109 2.5596166 2 15 1.6812926e+09
3.9151773 -8.3048286 1.4453906 60 12 1.6812926e+09
5.5605192 -7.7604866 1.8472788 10 13 1.6812926e+09
3.9078062 -8.2929535 0.79900026 71 10 1.6812926e+09
5.5463223 -7.7663517 1.1658487 6 11 1.6812926e+09
3.9032004 -8.2906961 0.15934047 90 8 1.6812926e+09
5.5326886 -7.7615514 0.49771494 21 9 1.6812926e+09
3.8955386 -8.2819166 -0.47941861 64 6 1.6812926e+09
5.5368037 -7.7759132 -0.16601601 7 7 1.6812926e+09
3.8993583 -8.3013134 -1.1202127 41 4 1.6812926e+09
5.4675589 -7.6787848 -0.82002157 41 5 1.6812926e+09
3.3668125 -7.1800265 -1.5318254 19 2 1.6812926e+09
5.4749355 -7.6806769 -1.4901141 33 3 1.6812926e+09
2.2778015 -4.8651023 -1.4290438 18 0 1.6812926e+09
3.679543 -5.1532264 -1.451548 18 1 1.6812926e+09
3.8835638 -8.3128462 2.1068504 41 14 1.6812926e+09
5.5836616 -7.8158669 2.5609088 2 15 1.6812926e+09
3.8809404 -8.3072567 1.4434394 60 12 1.6812926e+09
5.5248561 -7.7678542 1.8444195 10 13 1.6812926e+09
3.8773849 -8.3072205 0.79900026 75 10 1.6812926e+09
5.5148716 -7.7795939 1.1649361 6 11 1.6812926e+09
3.8759553 -8.3117428 0.15947135 96 8 1.6812926e+09
5.501318 -7.7777023 0.49745327 24 9 1.6812926e+09
3.8714812 -8.3097181 -0.48020622 90 6 1.6812926e+09
5.5038524 -7.7870307 -0.16584148 7 7 1.6812926e+09
3.869952 -8.3177986 -1.1205169 41 4 1.6812926e+09
5.4378448 -7.6937571 -0.81958663 41 5 1.6812926e+09
3.3344929 -7.1761537 -1.5284922 24 2 1.6812926e+09
5.4395285 -7.6876516 -1.4877651 33 3 1.6812926e+09
2.2608054 -4.873023 -1.4290438 18 0 1.6812926e+09
3.6685836 -5.1759715 -1.4543557 19 1 1.6812926e+09
3.8551147 -8.3314457 2.1079736 66 14 1.6812926e+09
5.543797 -7.8205237 2.5557394 2 15 1.6812926e+09
3.8525395 -8.3259068 1.4442198 64 12 1.6812926e+09
5.4906836 -7.7800336 1.842513 9 13 1.6812926e+09
3.8514988 -8.327486 0.79965395 41 10 1.6812926e+09
5.4834628 -7.7956963 1.1643275 6 11 1.6812926e+09
3.8427255 -8.316144 0.15929683 74 8 1.6812926e+09
5.4755702 -7.7989001 0.49758407 6 9 1.6812926e+09
3.8393133 -8.3163805 -0.47981241 90 6 1.6812926e+09
5.4752002 -7.8041496 -0.16579786 7 7 1.6812926e+09
3.8388171 -8.3267498 -1.1199083 41 4 1.6812926e+09
5.4080925 -7.7086153 -0.8191517 42 5 1.6812926e+09
3.2948368 -7.1593413 -1.5223022 25 2 1.6812926e+09
5.4113154 -7.7075377 -1.4877651 33 3 1.6812926e+09
2.2457972 -4.8852739 -1.430337 16 0 1.6812926e+09
3.6547034 -5.1947198 -1.4560404 17 1 1.6812926e+09
3.8209343 -8.3337793 2.1051657 51 14 1.6812926e+09
23.676605 -33.621662 10.993879 14 15 1.6812926e+09
3.8203673 -8.332571 1.4430492 41 12 1.6812926e+09
5.4606752 -7.7951336 1.8415598 10 13 1.6812926e+09
3.822407 -8.3408804 0.79965395 74 10 1.6812926e+09
5.4505315 -7.8066535 1.1631105 6 11 1.6812926e+09
3.8157542 -8.334053 0.15938409 90 8 1.6812926e+09
5.4397435 -7.8056803 0.49679902 6 9 1.6812926e+09
3.819603 -8.3501663 -0.4809939 64 6 1.6812926e+09
5.4422078 -7.815012 -0.16562332 7 7 1.6812926e+09
3.8138502 -8.3491278 -1.1211253 41 4 1.6812926e+09
5.3740306 -7.7172313 -0.81806445 41 5 1.6812926e+09
3.2586308 -7.1462331 -1.5170642 24 2 1.6812926e+09
5.3744898 -7.7122045 -1.4850245 33 3 1.6812926e+09
2.2297311 -4.8952818 -1.4309835 16 0 1.6812926e+09
3.6351519 -5.2054491 -1.4554788 18 1 1.6812926e+09
3.7918205 -8.3470659 2.1051657 55 14 1.6812926e+09
23.563251 -33.710045 10.995818 14 15 1.6812926e+09
3.7902367 -8.343606 1.4426589 58 12 1.6812926e+09
5.422215 -7.7980328 1.837747 10 13 1.6812926e+09
3.7881219 -8.3428316 0.79856443 63 10 1.6812926e+09
5.4204187 -7.8215537 1.1625021 6 11 1.6812926e+09
3.7804461 -8.333662 0.1591223 56 8 1.6812926e+09
5.4124641 -7.8246207 0.49679902 7 9 1.6812926e+09
3.7863114 -8.354351 -0.48046878 42 6 1.6812926e+09
5.4106283 -7.8277946 -0.16549245 7 7 1.6812926e+09
3.784683 -8.3623905 -1.1211253 41 4 1.6812926e+09
5.3484764 -7.7379909 -0.81828189 42 5 1.6812926e+09
3.2185166 -7.1240125 -1.5099218 23 2 1.6812926e+09
5.3461304 -7.7288871 -1.4846328 33 3 1.6812926e+09
2.2096519 -4.8964305 -1.4290438 16 0 1.6812926e+09
3.6100128 -5.2081008 -1.4526711 19 1 1.6812926e+09
3.7566645 -8.34692 2.1017966 56 14 1.6812926e+09
23.455076 -33.805977 11.000341 14 15 1.6812926e+09
3.7621024 -8.3590384 1.4430492 60 12 1.6812926e+09
5.3907771 -7.8108549 1.8363172 9 13 1.6812926e+09
3.7579558 -8.3537331 0.79834658 68 10 1.6812926e+09
5.387454 -7.832252 1.161285 6 11 1.6812926e+09
3.7544062 -8.3536482 0.15925321 80 8 1.6812926e+09
5.3780475 -7.8331795 0.49614483 6 9 1.6812926e+09
3.7520151 -8.3561287 -0.47981241 62 6 1.6812926e+09
5.384686 -7.8486929 -0.16553606 7 7 1.6812926e+09
3.7544556 -8.3732862 -1.1208211 41 4 1.6812926e+09
5.318614 -7.7525077 -0.81784707 42 5 1.6812926e+09
3.2317109 -7.2203355 -1.5280161 24 2 1.6812926e+09
5.3135247 -7.7393618 -1.4830668 32 3 1.6812926e+09
2.1935315 -4.9063187 -1.4296902 16 0 1.6812926e+09
3.5945756 -5.2246823 -1.4537941 18 1 1.6812926e+09
3.72453 -8.3533068 2.100112 56 14 1.6812926e+09
23.34515 -33.899574 11.004218 14 15 1.6812926e+09
3.7298853 -8.3653536 1.4418786 56 12 1.6812926e+09
5.360703 -7.8255777 1.835364 9 13 1.6812926e+09
3.7247195 -8.3576994 0.79747504 62 10 1.6812926e+09
5.3572812 -7.8469129 1.1606766 6 11 1.6812926e+09
3.7201424 -8.3552847 0.15903506 83 8 1.6812926e+09
5.3520784 -7.8539667 0.49627569 6 9 1.6812926e+09
3.7197816 -8.3623314 -0.47941861 76 6 1.6812926e+09
5.3530331 -7.8612461 -0.16540517 7 7 1.6812926e+09
3.7252042 -8.3863411 -1.1208211 41 4 1.6812926e+09
5.2817011 -7.7566209 -0.81632489 41 5 1.6812926e+09
3.1875956 -7.18894 -1.5189689 24 2 1.6812926e+09
5.2850857 -7.7558231 -1.4826753 32 3 1.6812926e+09
2.1744375 -4.9095287 -1.4283972 16 0 1.6812926e+09
3.5721903 -5.2311654 -1.4521096 19 1 1.6812926e+09
3.6983008 -8.3729429 2.1017966 56 14 1.6812926e+09
23.234852 -33.992821 11.008096 14 15 1.6812926e+09
3.7006621 -8.3783226 1.4418786 62 12 1.6812926e+09
5.3250694 -7.8320694 1.8325046 9 13 1.6812926e+09
3.6975336 -8.3752069 0.79791081 73 10 1.6812926e+09
5.3270717 -7.8614583 1.160068 6 11 1.6812926e+09
3.6879292 -8.3613567 0.15890415 95 8 1.6812926e+09
5.3148327 -7.8581295 0.49535984 8 9 1.6812926e+09
3.6855371 -8.3638411 -0.47876218 67 6 1.6812926e+09
5.3157549 -7.8653913 -0.16509975 8 7 1.6812926e+09
3.6969066 -8.4015636 -1.1211253 41 4 1.6812926e+09
5.2559886 -7.7770729 -0.81654227 41 5 1.6812926e+09
3.1664276 -7.209012 -1.5208735 22 2 1.6812926e+09
5.2565966 -7.7721796 -1.4822838 33 3 1.6812926e+09
2.1553478 -4.9126658 -1.4271039 16 0 1.6812926e+09
3.5511718 -5.2395716 -1.4509866 18 1 1.6812926e+09
3.6710036 -8.3902655 2.1029198 56 14 1.6812926e+09
23.156738 -34.133671 11.027482 17 15 1.6812926e+09
3.669415 -8.3866634 1.4410981 58 12 1.6812926e+09
5.2935762 -7.8445077 1.8310747 9 13 1.6812926e+09
3.6662815 -8.3834982 0.79747504 70 10 1.6812926e+09
5.2995882 -7.8770232 1.1597638 6 11 1.6812926e+09
3.6647222 -8.3879251 0.15916593 99 8 1.6812926e+09
5.284585 -7.8724895 0.49509814 7 9 1.6812926e+09
3.6553216 -8.3743668 -0.47863093 96 6 1.6812926e+09
5.2868733 -7.8818235 -0.16505612 8 7 1.6812926e+09
3.665575 -8.4098673 -1.1205169 41 4 1.6812926e+09
5.2246447 -7.7891693 -0.81588995 41 5 1.6812926e+09
3.1689379 -7.2802362 -1.53373 18 2 1.6812926e+09
5.2294159 -7.787519 -1.4818922 33 3 1.6812926e+09
2.1333776 -4.9090838 -1.4238708 16 0 1.6812926e+09
3.5314994 -5.2499151 -1.450425 19 1 1.6812926e+09
3.6450975 -8.4068632 2.1040428 57 14 1.6812926e+09
5.325469 -7.9126449 2.5428152 3 15 1.6812926e+09
3.6445291 -8.4055834 1.4422687 59 12 1.6812926e+09
5.2675338 -7.8620186 1.8310747 9 13 1.6812926e+09
3.638974 -8.400816 0.79791081 75 10 1.6812926e+09
5.2637854 -7.8830953 1.1579384 6 11 1.6812926e+09
3.6339085 -8.3931494 0.15903506 76 8 1.6812926e+09
5.2556796 -7.8858175 0.49483645 8 9 1.6812926e+09
3.6275308 -8.3864422 -0.47863093 72 6 1.6812926e+09
5.2510114 -7.8877501 -0.16479434 8 7 1.6812926e+09
3.6347163 -8.4151421 -1.1196041 41 4 1.6812926e+09
5.1904974 -7.7940178 -0.81458521 41 5 1.6812926e+09
3.1163135 -7.2281442 -1.5203974 22 2 1.6812926e+09
5.2008305 -7.8036718 -1.4815009 33 3 1.6812926e+09
2.1143205 -4.9120636 -1.4225775 15 0 1.6812926e+09
3.5072982 -5.2514729 -1.4476173 19 1 1.6812926e+09
3.6128471 -8.4128199 2.1023581 42 14 1.6812926e+09
5.2911043 -7.9211478 2.5395842 3 15 1.6812926e+09
3.6161399 -8.4205217 1.4426589 60 12 1.6812926e+09
5.2318997 -7.8681011 1.8282152 10 13 1.6812926e+09
3.6179698 -8.4288597 0.79943603 79 10 1.6812926e+09
5.2293773 -7.8910828 1.1564173 6 11 1.6812926e+09
3.6075428 -8.4126749 0.15916593 97 8 1.6812926e+09
5.2308769 -7.908278 0.49509814 8 9 1.6812926e+09
3.6021657 -8.4082346 -0.47915605 79 6 1.6812926e+09
5.2193089 -7.899776 -0.16466343 8 7 1.6812926e+09
3.6053197 -8.4277782 -1.1196041 41 4 1.6812926e+09
5.163269 -7.8150673 -0.81480259 42 5 1.6812926e+09
3.044826 -7.1306281 -1.4975414 22 2 1.6812926e+09
5.1681061 -7.8135433 -1.4799347 33 3 1.6812926e+09
2.0914831 -4.9060826 -1.4186976 16 0 1.6812926e+09
3.4866798 -5.2622623 -1.4470558 18 1 1.6812926e+09
3.5853651 -8.4298639 2.1034813 65 14 1.6812926e+09
5.2567453 -7.9295087 2.5363533 3 15 1.6812926e+09
3.5857589 -8.4308205 1.4422687 56 12 1.6812926e+09
5.1976385 -7.8760767 1.8258321 9 13 1.6812926e+09
3.5851052 -8.437479 0.79900026 42 10 1.6812926e+09
5.2058949 -7.9155068 1.15733 6 11 1.6812926e+09
3.5776606 -8.4281416 0.15920956 93 8 1.6812926e+09
5.1977439 -7.9211369 0.49470559 8 9 1.6812926e+09
3.5732722 -8.4259777 -0.47941861 68 6 1.6812926e+09
5.1834726 -7.9054093 -0.16440167 8 7 1.6812926e+09
3.5724719 -8.4363661 -1.1189957 41 4 1.6812926e+09
5.1277585 -7.82055 -0.81349796 41 5 1.6812926e+09
3.0342479 -7.1751227 -1.504684 17 2 1.6812926e+09
5.1380887 -7.8274088 -1.4791517 34 3 1.6812926e+09
2.0677752 -4.897778 -1.4141712 16 0 1.6812926e+09
3.46293 -5.2662635 -1.4448098 18 1 1.6812926e+09
3.5506647 -8.4339657 2.1012352 48 14 1.6812926e+09
5.2342863 -7.958807 2.5395842 3 15 1.6812926e+09
3.558665 -8.4530115 1.4438297 44 12 1.6812926e+09
5.1700816 -7.8971276 1.8263088 9 13 1.6812926e+09
3.5565965 -8.4522371 0.79921818 86 10 1.6812926e+09
5.1687064 -7.9220686 1.1555045 6 11 1.6812926e+09
3.547251 -8.4382744 0.15916593 90 8 1.6812926e+09
5.1632462 -7.9287748 0.4940514 8 9 1.6812926e+09
3.5419059 -8.433795 -0.47915605 64 6 1.6812926e+09
5.1626678 -7.9339271 -0.16461982 9 7 1.6812926e+09
3.5458791 -8.4556503 -1.1199083 41 4 1.6812926e+09
5.0936317 -7.8279681 -0.81241065 41 5 1.6812926e+09
2.9994056 -7.1658187 -1.5003985 21 2 1.6812926e+09
5.1026235 -7.8358464 -1.4771941 35 3 1.6812926e+09
2.0413589 -4.8826833 -1.4077051 16 0 1.6812926e+09
3.4405279 -5.2722015 -1.4431251 18 1 1.6812926e+09
3.5193291 -8.4418116 2.100112 55 14 1.6812926e+09
5.2130775 -7.9871387 2.5428152 3 15 1.6812926e+09
3.5262876 -8.4585438 1.4426589 58 12 1.6812926e+09
5.1371317 -7.9068966 1.8244023 10 13 1.6812926e+09
3.5213258 -8.4508057 0.79791081 64 10 1.6812926e+09
5.1369724 -7.933816 1.1545918 8 11 1.6812926e+09
3.5148938 -8.4436817 0.15903506 44 8 1.6812926e+09
5.1206212 -7.9236922 0.49261215 9 9 1.6812926e+09
3.5172358 -8.457633 -0.47981241 43 6 1.6812926e+09
5.1267991 -7.9393039 -0.16435802 9 7 1.6812926e+09
3.5163414 -8.4679756 -1.1199083 41 4 1.6812926e+09
5.0662761 -7.8457003 -0.81241065 41 5 1.6812926e+09
2.9753129 -7.1785116 -1.5008746 21 2 1.6812926e+09
5.0752397 -7.8536105 -1.4771941 34 3 1.6812926e+09
2.0224566 -4.8853159 -1.4064119 17 0 1.6812926e+09
3.4168005 -5.2760043 -1.4408791 19 1 1.6812926e+09
3.4935565 -8.4630527 2.1023581 56 14 1.6812926e+09
5.1759682 -7.9911022 2.5382917 7 15 1.6812926e+09
3.4957986 -8.4685192 1.4422687 60 12 1.6812926e+09
5.0975227 -7.9062233 1.8201131 10 13 1.6812926e+09
3.4946535 -8.4699526 0.79856443 79 10 1.6812926e+09
5.0864263 -7.9162197 1.1494197 11 11 1.6812926e+09
3.4853985 -8.4558992 0.15903506 96 8 1.6812926e+09
5.0807924 -7.9226098 0.49143457 17 9 1.6812926e+09
3.4800901 -8.4513903 -0.47876218 87 6 1.6812926e+09
5.082859 -7.9319053 -0.16383445 18 7 1.6812926e+09
3.4848754 -8.4756088 -1.1193 41 4 1.6812926e+09
5.0361691 -7.8591442 -0.81197578 41 5 1.6812926e+09
2.9437184 -7.1729593 -1.4975414 21 2 1.6812926e+09
5.0437932 -7.8650451 -1.4760196 34 3 1.6812926e+09
2.0044763 -4.8901114 -1.4057652 17 0 1.6812926e+09
3.3983631 -5.287899 -1.4408791 18 1 1.6812926e+09
3.4584668 -8.4616661 2.0989892 55 14 1.6812926e+09
5.0970769 -7.9299159 2.5130899 11 15 1.6812926e+09
3.4643488 -8.4760971 1.4414883 55 12 1.6812926e+09
5.0487146 -7.8909035 1.8124875 30 13 1.6812926e+09
3.4622428 -8.4751835 0.79791081 64 10 1.6812926e+09
5.0253849 -7.8816357 1.1418136 32 11 1.6812926e+09
3.4539728 -8.4633856 0.15894778 99 8 1.6812926e+09
5.0249367 -7.8960791 0.48868695 37 9 1.6812926e+09
3.4543369 -8.4727345 -0.4792873 89 6 1.6812926e+09
5.0363483 -7.9200788 -0.16322362 31 7 1.6812926e+09
3.4590092 -8.4969149 -1.1205169 41 4 1.6812926e+09
5.002018 -7.8661718 -0.81088853 41 5 1.6812926e+09
2.9242022 -7.196835 -1.5003985 18 2 1.6812926e+09
5.0123277 -7.8763547 -1.4748449 33 3 1.6812926e+09
1.9819499 -4.8836503 -1.4018855 17 0 1.6812926e+09
3.3733268 -5.289464 -1.4380714 18 1 1.6812926e+09
3.4362156 -8.4917526 2.1034813 56 14 1.6812926e+09
5.0056777 -7.8479214 2.4814258 72 15 1.6812926e+09
3.432889 -8.4835596 1.4407078 60 12 1.6812926e+09
4.9829621 -7.8484139 1.7986662 56 13 1.6812926e+09
3.4307709 -8.4825983 0.79747504 76 10 1.6812926e+09
4.9646897 -7.84376 1.1339035 78 11 1.6812926e+09
3.4262807 -8.4800262 0.15903506 96 8 1.6812926e+09
4.9653273 -7.862926 0.48554683 80 9 1.6812926e+09
3.4219384 -8.4777956 -0.47889349 62 6 1.6812926e+09
4.9566088 -7.8551917 -0.16152202 84 7 1.6812926e+09
3.4302561 -8.51124 -1.1208211 41 4 1.6812926e+09
4.9758596 -7.8856897 -0.81110591 41 5 1.6812926e+09
2.9003205 -7.2064924 -1.5003985 18 2 1.6812926e+09
4.9822226 -7.8866725 -1.4736705 35 3 1.6812926e+09
1.9684889 -4.8995032 -1.4044719 16 0 1.6812926e+09
3.3535385 -5.2991495 -1.4375098 18 1 1.6812926e+09
3.4035077 -8.4917946 2.1006737 55 14 1.6812926e+09
4.9938488 -7.8869152 2.488534 51 15 1.6812926e+09
3.4074926 -8.5017748 1.4418786 59 12 1.6812926e+09
4.9765525 -7.8960276 1.8058152 64 13 1.6812926e+09
3.4029908 -8.4991474 0.79791081 79 10 1.6812926e+09
4.9597335 -7.8967528 1.1390755 73 11 1.6812926e+09
3.394428 -8.4820566 0.15886052 99 8 1.6812926e+09
4.9485145 -7.8941512 0.48646271 48 9 1.6812926e+09
3.3910272 -8.4821415 -0.47849968 96 6 1.6812926e+09
4.9464164 -7.8999786 -0.16208921 48 7 1.6812926e+09
3.4001737 -8.5179586 -1.1202127 41 4 1.6812926e+09
4.9417434 -7.8894858 -0.80980116 41 5 1.6812926e+09
2.8851337 -7.2416539 -1.5056363 21 2 1.6812926e+09
4.9507251 -7.8977418 -1.4724959 35 3 1.6812926e+09
1.9522663 -4.9085889 -1.4051186 17 0 1.6812926e+09
3.3424344 -5.3205504 -1.4403175 18 1 1.6812926e+09
3.3774371 -8.512681 2.1029198 58 14 1.6812926e+09
4.9688597 -7.9083877 2.4898264 55 15 1.6812926e+09
3.3759744 -8.5090256 1.4410981 60 12 1.6812926e+09
4.9411464 -7.9008708 1.8029556 56 13 1.6812926e+09
3.3766234 -8.5150166 0.79834658 70 10 1.6812926e+09
4.9242578 -7.9013867 1.1372502 70 11 1.6812926e+09
3.3703201 -8.5077982 0.1591223 82 8 1.6812926e+09
4.9222484 -7.9134955 0.48659351 58 9 1.6812926e+09
3.3623164 -8.4962482 -0.47863093 79 6 1.6812926e+09
4.9161706 -7.9129524 -0.16200197 55 7 1.6812926e+09
3.3695078 -8.5274668 -1.1199083 41 4 1.6812926e+09
4.9101629 -7.9033151 -0.80936623 41 5 1.6812926e+09
2.7599518 -6.9982343 -1.4527819 21 2 1.6812926e+09
4.9192109 -7.9086866 -1.4713213 35 3 1.6812926e+09
1.9351202 -4.9153733 -1.4051186 16 0 1.6812926e+09
3.3216214 -5.330699 -1.439756 19 1 1.6812926e+09
3.3485913 -8.5266867 2.1034813 54 14 1.6812926e+09
4.9105353 -7.8765144 2.4743176 54 15 1.6812926e+09
3.3489585 -8.5276546 1.4422687 60 12 1.6812926e+09
4.8967018 -7.8909707 1.79676 56 13 1.6812926e+09
3.3472102 -8.5319729 0.79878241 78 10 1.6812926e+09
4.8783607 -7.8889885 1.1329907 60 11 1.6812926e+09
3.3409381 -8.5247498 0.15920956 99 8 1.6812926e+09
4.869597 -7.8932495 0.48423842 56 9 1.6812926e+09
3.332063 -8.5108385 -0.47876218 90 6 1.6812926e+09
4.8662019 -7.8939018 -0.16126023 59 7 1.6812926e+09
3.3382306 -8.5397596 -1.1199083 41 4 1.6812926e+09
4.8786216 -7.9140491 -0.80871391 42 5 1.6812926e+09
2.7613716 -7.074132 -1.4665906 19 2 1.6812926e+09
4.8850856 -7.915307 -1.4693638 33 3 1.6812926e+09
1.9197026 -4.926599 -1.4064119 17 0 1.6812926e+09
3.3081243 -5.3505459 -1.4420022 18 1 1.6812926e+09
3.3164356 -8.5366316 2.1029198 57 14 1.6812926e+09
4.8790913 -7.8903527 2.4730253 54 15 1.6812926e+09
3.3158927 -8.5352678 1.4414883 41 12 1.6812926e+09
4.8600221 -7.896328 1.7939004 52 13 1.6812926e+09
3.3156052 -8.5389605 0.79834658 48 10 1.6812926e+09
4.8494124 -7.9068155 1.1329907 59 11 1.6812926e+09
3.3093538 -8.5316982 0.1591223 98 8 1.6812926e+09
4.8394055 -7.9059415 0.48397672 57 9 1.6812926e+09
3.3059406 -8.5317297 -0.4792873 82 6 1.6812926e+09
4.8333964 -7.9023132 -0.1610857 59 7 1.6812926e+09
3.3101907 -8.5559893 -1.1205169 42 4 1.6812926e+09
4.8483653 -7.9267826 -0.80827898 42 5 1.6812926e+09
2.7822514 -7.2055583 -1.4918275 21 2 1.6812926e+09
4.8521709 -7.9268432 -1.4681892 34 3 1.6812926e+09
1.9042305 -4.9377775 -1.4077051 17 0 1.6812926e+09
3.240962 -5.2831888 -1.4206641 18 1 1.6812926e+09
3.286617 -8.5481567 2.1029198 42 14 1.6812926e+09
4.8489909 -7.9032202 2.4717329 51 15 1.6812926e+09
3.2922792 -8.5629253 1.4442198 68 12 1.6812926e+09
4.8298683 -7.9090567 1.7929472 50 13 1.6812926e+09
3.2920289 -8.5667572 0.7998718 76 10 1.6812926e+09
4.8153286 -7.9131002 1.1314695 52 11 1.6812926e+09
3.2813432 -8.5478659 0.15920956 84 8 1.6812926e+09
4.807888 -7.9163871 0.48358423 58 9 1.6812926e+09
3.2761395 -8.5432177 -0.4792873 42 6 1.6812926e+09
4.8031874 -7.9148641 -0.16099843 60 7 1.6812926e+09
3.2820783 -8.5721264 -1.1211253 42 4 1.6812926e+09
4.8206668 -7.9436584 -0.80827898 42 5 1.6812926e+09
nan nan nan 0 2 1.6812926e+09
4.8206224 -7.9374018 -1.4670146 34 3 1.6812926e+09
1.8955858 -4.966959 -1.4141712 17 0 1.6812926e+09
3.2060142 -5.2674289 -1.4133643 19 1 1.6812926e+09
3.2576239 -8.5618525 2.1034813 55 14 1.6812926e+09
4.8213735 -7.9200978 2.4717329 57 15 1.6812926e+09
3.2562251 -8.5582094 1.4414883 57 12 1.6812926e+09
4.7984138 -7.9195738 1.7915175 57 13 1.6812926e+09
3.2603357 -8.5735397 0.79943603 40 10 1.6812926e+09
4.7889609 -7.9319844 1.1317738 58 11 1.6812926e+09
3.2523732 -8.5616045 0.15925321 72 8 1.6812926e+09
4.7802253 -7.9331217 0.48358423 59 9 1.6812926e+09
3.2489543 -8.5616064 -0.47968113 90 6 1.6812926e+09
4.7755299 -7.9315825 -0.16099843 60 7 1.6812926e+09
3.2538936 -8.5881729 -1.1217338 42 4 1.6812926e+09
4.787766 -7.9519057 -0.80740923 42 5 1.6812926e+09
2.6112957 -6.9056907 -1.4256405 21 2 1.6812926e+09
4.7941623 -7.9562955 -1.4674062 35 3 1.6812926e+09
1.8824985 -4.9848433 -1.4174045 16 0 1.6812926e+09
3.2355213 -5.3577962 -1.4347023 18 1 1.6812926e+09
3.2234282 -8.5617723 2.1006737 55 14 1.6812926e+09
4.7874503 -7.9265466 2.4685018 54 15 1.6812926e+09
3.2298105 -8.5787687 1.4430492 62 12 1.6812926e+09
4.7720051 -7.9383774 1.791994 52 13 1.6812926e+09
3.2312655 -8.5872002 0.79965395 74 10 1.6812926e+09
4.7599683 -7.9465241 1.1314695 59 11 1.6812926e+09
3.2233465 -8.5752439 0.15929683 98 8 1.6812926e+09
4.7499404 -7.9454746 0.48332253 58 9 1.6812926e+09
3.2172942 -8.5682201 -0.47941861 90 6 1.6812926e+09
4.7478147 -7.9482036 -0.16099843 62 7 1.6812926e+09
3.2326016 -8.622715 -1.1247762 29 4 1.6812926e+09
4.7599797 -7.9685698 -0.80740923 41 5 1.6812926e+09
2.5837367 -6.9055686 -1.4237357 17 2 1.6812926e+09
4.7587528 -7.9602699 -1.465057 35 3 1.6812926e+09
1.8693093 -5.002696 -1.4206376 16 0 1.6812926e+09
3.2193067 -5.3732352 -1.4358253 18 1 1.6812926e+09
3.1952224 -8.5775375 2.1017966 55 14 1.6812926e+09
4.7647214 -7.9514928 2.4710865 57 15 1.6812926e+09
3.1972604 -8.5830479 1.4418786 58 12 1.6812926e+09
4.7467818 -7.9592009 1.7929472 56 13 1.6812926e+09
3.1995337 -8.5937586 0.79921818 80 10 1.6812926e+09
4.7361283 -7.9665298 1.1320781 59 11 1.6812926e+09
3.1925232 -8.5841017 0.15925321 99 8 1.6812926e+09
