# .PCD v0.7 - Point Cloud Data file format
VERSION 0.7
FIELDS x y z intensity ring timestamp
SIZE 4 4 4 4 2 8
TYPE F F F F U F
COUNT 1 1 1 1 1 1
WIDTH 940
HEIGHT 1
VIEWPOINT 0 0 0 1 0 0 0
POINTS 940
DATA ascii
3.3103228 -1.4129701 0.953798 49 15 1.6812914e+09
3.3813334 -2.2427785 0.63567525 2 12 1.6812914e+09
3.3785138 -1.4502738 0.70726568 3 13 1.6812914e+09
9.2724876 -6.1562271 0.9706971 2 10 1.6812914e+09
3.3726447 -1.4533007 0.44601622 2 11 1.6812914e+09
3.3462653 -2.2220361 0.069504201 48 8 1.6812914e+09
3.3663132 -1.4547415 0.19037202 3 9 1.6812914e+09
3.0587158 -2.0324554 -0.19126858 45 6 1.6812914e+09
3.0783591 -1.3319969 -0.057941984 56 7 1.6812914e+09
3.0165834 -2.0067022 -0.43993142 46 4 1.6812914e+09
3.0443912 -1.3173671 -0.28660524 55 5 1.6812914e+09
2.982832 -1.9864668 -0.68853581 45 2 1.6812914e+09
3.0123878 -1.3017329 -0.51484501 52 3 1.6812914e+09
3.4382911 -2.2935584 -1.0973245 15 0 1.6812914e+09
2.978287 -1.2834091 -0.73953146 18 1 1.6812914e+09
3.7703469 -2.5190771 1.037141 7 14 1.6812914e+09
3.3122771 -1.4267975 0.9557367 50 15 1.6812914e+09
3.3882468 -2.2635877 0.63840681 2 12 1.6812914e+09
3.3736861 -1.4614693 0.70726568 3 13 1.6812914e+09
9.3026867 -6.2231836 0.97614431 2 10 1.6812914e+09
3.3721044 -1.4670386 0.4466247 2 11 1.6812914e+09
3.3430328 -2.2359018 0.06959147 41 8 1.6812914e+09
3.3752089 -1.4718672 0.19115707 2 9 1.6812914e+09
3.0581813 -2.0467563 -0.1916624 45 6 1.6812914e+09
3.0805666 -1.3457268 -0.058072876 56 7 1.6812914e+09
3.0181558 -2.0222235 -0.4411484 46 4 1.6812914e+09
3.0491412 -1.3314295 -0.28747508 54 5 1.6812914e+09
2.9799545 -1.9996036 -0.68948811 45 2 1.6812914e+09
3.0078256 -1.3122402 -0.51484501 49 3 1.6812914e+09
3.4122307 -2.2934146 -1.0915048 18 0 1.6812914e+09
2.9762499 -1.2942467 -0.74009293 47 1 1.6812914e+09
3.7332456 -2.5131657 1.0292796 8 14 1.6812914e+09
3.3139241 -1.4412316 0.95767528 49 15 1.6812914e+09
3.3823724 -2.2767806 0.63879704 2 12 1.6812914e+09
3.3775635 -1.477159 0.70917213 3 13 1.6812914e+09
9.3212357 -6.2804451 0.98028421 3 10 1.6812914e+09
3.3669631 -1.4788005 0.4466247 2 11 1.6812914e+09
3.3434968 -2.2531486 0.069765992 46 8 1.6812914e+09
3.3814816 -1.4886553 0.19181128 2 9 1.6812914e+09
3.0592952 -2.0630057 -0.1921875 45 6 1.6812914e+09
3.0783758 -1.3569402 -0.058116511 56 7 1.6812914e+09
3.0213583 -2.0396934 -0.44266957 46 4 1.6812914e+09
3.0421948 -1.3410635 -0.28725764 53 5 1.6812914e+09
2.979054 -2.0141201 -0.6909166 46 2 1.6812914e+09
3.01001 -1.3257077 -0.51601958 50 3 1.6812914e+09
3.3966103 -2.2992992 -1.0889184 26 0 1.6812914e+09
2.9806421 -1.3085322 -0.74233907 47 1 1.6812914e+09
3.7042947 -2.5124993 1.0236642 9 14 1.6812914e+09
3.3132977 -1.4547266 0.95896763 50 15 1.6812914e+09
3.3866632 -2.2968953 0.64113843 2 12 1.6812914e+09
3.376879 -1.4909166 0.71012527 3 13 1.6812914e+09
9.3033781 -6.3157425 0.98071998 3 10 1.6812914e+09
3.3663201 -1.4925504 0.4472332 2 11 1.6812914e+09
3.3500831 -2.2746408 0.070071407 82 8 1.6812914e+09
3.3762646 -1.5004499 0.19181128 2 9 1.6812914e+09
3.0603328 -2.0792882 -0.1927126 43 6 1.6812914e+09
3.0804758 -1.3707166 -0.058247402 54 7 1.6812914e+09
3.0203736 -2.0544171 -0.4435823 46 4 1.6812914e+09
3.0420489 -1.3536934 -0.28769252 53 5 1.6812914e+09
2.9841712 -2.0328028 -0.69377357 46 2 1.6812914e+09
3.0076215 -1.3372065 -0.51641107 49 3 1.6812914e+09
3.3865685 -2.3097799 -1.0882717 21 0 1.6812914e+09
2.9827425 -1.3218802 -0.74402368 50 1 1.6812914e+09
3.6769655 -2.5136788 1.0186105 9 14 1.6812914e+09
3.3145711 -1.469789 0.96090633 49 15 1.6812914e+09
3.378222 -2.3092926 0.64113843 2 12 1.6812914e+09
3.3713918 -1.5032836 0.71012527 3 13 1.6812914e+09
9.2986631 -6.3624587 0.98268098 4 10 1.6812914e+09
3.3565571 -1.5022702 0.4466247 2 11 1.6812914e+09
3.337599 -2.2840788 0.069984145 52 8 1.6812914e+09
3.3821373 -1.5179117 0.19246547 3 9 1.6812914e+09
3.0629873 -2.0975485 -0.19336899 45 6 1.6812914e+09
3.0754311 -1.3819979 -0.058247402 54 7 1.6812914e+09
3.0189614 -2.0696857 -0.44449502 46 4 1.6812914e+09
3.0416131 -1.3668694 -0.28812745 52 5 1.6812914e+09
2.9851484 -2.0487661 -0.69567823 46 2 1.6812914e+09
3.0096979 -1.3507205 -0.51758564 49 3 1.6812914e+09
3.38007 -2.3235457 -1.0889184 18 0 1.6812914e+09
2.9845521 -1.3357797 -0.74570823 48 1 1.6812914e+09
3.6385202 -2.5051241 1.0101876 8 14 1.6812914e+09
3.3140903 -1.4827393 0.96219867 50 15 1.6812914e+09
3.3827453 -2.3288891 0.64347976 2 12 1.6812914e+09
3.3775852 -1.5194756 0.71250826 3 13 1.6812914e+09
9.2886992 -6.4033618 0.98398834 3 10 1.6812914e+09
3.3626058 -1.5190713 0.4481459 2 11 1.6812914e+09
3.3464668 -2.3064892 0.07033319 2 8 1.6812914e+09
3.3702581 -1.5260377 0.19207294 2 9 1.6812914e+09
3.0580692 -2.1091127 -0.19350027 45 6 1.6812914e+09
3.0796995 -1.3968426 -0.058421925 54 7 1.6812914e+09
3.0161641 -2.0825074 -0.44510353 45 4 1.6812914e+09
3.0416028 -1.3789989 -0.28856236 53 5 1.6812914e+09
2.9799969 -2.0605705 -0.69615442 45 2 1.6812914e+09
3.0094657 -1.3632494 -0.51836866 48 3 1.6812914e+09
3.3600299 -2.3270752 -1.0850385 12 0 1.6812914e+09
2.9801064 -1.3456694 -0.74570823 48 1 1.6812914e+09
3.5897303 -2.4900239 0.99895704 8 14 1.6812914e+09
3.3155012 -1.4972721 0.96413732 52 15 1.6812914e+09
3.3745954 -2.340683 0.64347976 2 12 1.6812914e+09
3.3744967 -1.5322683 0.71298486 3 13 1.6812914e+09
9.296052 -6.4540181 0.98703879 4 10 1.6812914e+09
3.3618011 -1.5328531 0.4487544 2 11 1.6812914e+09
9.2887678 -6.4537735 0.19681951 4 8 1.6812914e+09
3.371727 -1.5408977 0.19246547 2 9 1.6812914e+09
3.0588865 -2.1254766 -0.19402537 45 6 1.6812914e+09
3.0841477 -1.4111953 -0.058596451 55 7 1.6812914e+09
3.012949 -2.0958588 -0.44571197 45 4 1.6812914e+09
3.0413029 -1.3916739 -0.28899726 53 5 1.6812914e+09
2.9828515 -2.0779793 -0.69853526 46 2 1.6812914e+09
3.0091827 -1.3757932 -0.51915169 48 3 1.6812914e+09
3.3879371 -2.3630874 -1.0966779 11 0 1.6812914e+09
2.9820454 -1.3590851 -0.74739283 48 1 1.6812914e+09
3.5370984 -2.4718215 0.9866035 8 14 1.6812914e+09
3.3146522 -1.5108337 0.96542972 53 15 1.6812914e+09
3.3805687 -2.3623555 0.64621133 2 12 1.6812914e+09
3.3825212 -1.550156 0.71584439 3 13 1.6812914e+09
9.2836695 -6.493567 0.98812824 6 10 1.6812914e+09
3.367707 -1.5497513 0.45027557 2 11 1.6812914e+09
9.3235149 -6.5263023 0.19804117 1 8 1.6812914e+09
3.3731327 -1.5557864 0.192858 3 9 1.6812914e+09
3.0575821 -2.140439 -0.19441919 43 6 1.6812914e+09
3.0814741 -1.4229974 -0.058640081 55 7 1.6812914e+09
3.0178034 -2.1149137 -0.44753742 45 4 1.6812914e+09
3.0454764 -1.4064461 -0.28986707 52 5 1.6812914e+09
2.9816041 -2.0926111 -0.69996375 45 2 1.6812914e+09
3.0088489 -1.3883517 -0.51993471 48 3 1.6812914e+09
3.3855934 -2.3790669 -1.0986178 12 0 1.6812914e+09
2.9817123 -1.3715159 -0.7485159 48 1 1.6812914e+09
3.4906123 -2.4574924 0.97593445 8 14 1.6812914e+09
3.3115535 -1.5234014 0.96607596 53 15 1.6812914e+09
3.3702836 -2.372719 0.64582109 2 12 1.6812914e+09
3.379318 -1.5629811 0.71632099 3 13 1.6812914e+09
3.3679144 -2.3719363 0.35733855 4 10 1.6812914e+09
3.3667805 -1.5635823 0.45088407 2 11 1.6812914e+09
9.312933 -6.5674529 0.19830297 9 8 1.6812914e+09
3.369946 -1.568602 0.19298883 2 9 1.6812914e+09
3.064369 -2.1611776 -0.19533813 43 6 1.6812914e+09
3.0787551 -1.4347979 -0.058683712 55 7 1.6812914e+09
3.0205348 -2.1325955 -0.44905862 45 4 1.6812914e+09
3.0428073 -1.4181172 -0.29008454 52 5 1.6812914e+09
2.9782877 -2.1058416 -0.70091605 45 2 1.6812914e+09
3.0084641 -1.4009243 -0.52071774 48 3 1.6812914e+09
3.3910618 -2.4006438 -1.1031442 12 0 1.6812914e+09
2.9835401 -1.3849835 -0.75020045 48 1 1.6812914e+09
3.4542019 -2.4499197 0.96807307 7 14 1.6812914e+09
3.3149827 -1.5390081 0.96866077 52 15 1.6812914e+09
3.3680217 -2.3887575 0.64699179 2 12 1.6812914e+09
3.3849673 -1.5799439 0.71870399 3 13 1.6812914e+09
7.7679791 -5.5142241 0.83037639 8 10 1.6812914e+09
3.379288 -1.5837271 0.453318 2 11 1.6812914e+09
9.3225517 -6.6230888 0.19900106 1 8 1.6812914e+09
3.3802772 -1.5877663 0.19390471 3 9 1.6812914e+09
3.0608752 -2.1747549 -0.19560067 43 6 1.6812914e+09
3.0827816 -1.449779 -0.058858238 54 7 1.6812914e+09
3.0211575 -2.1488829 -0.45027557 45 4 1.6812914e+09
3.0446041 -1.4319006 -0.29073688 50 5 1.6812914e+09
2.982909 -2.1247745 -0.70377308 45 2 1.6812914e+09
3.0080278 -1.4135114 -0.52150083 48 3 1.6812914e+09
3.398385 -2.4236903 -1.1083171 12 0 1.6812914e+09
2.9831026 -1.3974503 -0.75132352 47 1 1.6812914e+09
3.4178877 -2.4421229 0.96021175 7 14 1.6812914e+09
3.3161552 -1.5536356 0.97059935 52 15 1.6812914e+09
3.3737228 -2.4105542 0.64972335 2 12 1.6812914e+09
3.3838747 -1.5938359 0.71965712 3 13 1.6812914e+09
7.730453 -5.5282645 0.82841533 9 10 1.6812914e+09
3.3782282 -1.5976297 0.45392647 2 11 1.6812914e+09
9.3339272 -6.6803265 0.19974278 1 8 1.6812914e+09
3.3656847 -1.5952898 0.19338135 3 9 1.6812914e+09
3.0593536 -2.1897881 -0.1959945 43 6 1.6812914e+09
3.0799618 -1.4615996 -0.058901869 53 7 1.6812914e+09
3.0176711 -2.1623082 -0.45088407 45 4 1.6812914e+09
3.0463419 -1.4457136 -0.29138926 50 5 1.6812914e+09
2.9814537 -2.1394689 -0.70520157 45 2 1.6812914e+09
3.0075405 -1.4261125 -0.52228385 47 3 1.6812914e+09
3.3997073 -2.4425879 -1.1115503 13 0 1.6812914e+09
2.9804101 -1.4088928 -0.75188506 47 1 1.6812914e+09
3.389576 -2.4397986 0.9545964 8 14 1.6812914e+09
3.3194506 -1.5693194 0.97318417 53 15 1.6812914e+09
3.3692951 -2.4252028 0.65050381 2 12 1.6812914e+09
3.3738549 -1.6035367 0.71870399 3 13 1.6812914e+09
7.6909046 -5.5406542 0.82623643 9 10 1.6812914e+09
3.3726311 -1.6094121 0.45392647 2 11 1.6812914e+09
9.3227158 -6.7216401 0.20000458 7 8 1.6812914e+09
9.3432932 -4.4595857 0.54076123 4 9 1.6812914e+09
3.0597885 -2.2062984 -0.1965196 43 6 1.6812914e+09
3.0816088 -1.4755713 -0.059032761 54 7 1.6812914e+09
3.0161388 -2.1771884 -0.45179677 45 4 1.6812914e+09
3.0457718 -1.4584837 -0.29182416 52 5 1.6812914e+09
2.9799321 -2.1541793 -0.70663005 45 2 1.6812914e+09
3.0092306 -1.4397898 -0.52345842 47 3 1.6812914e+09
3.3950717 -2.4572732 -1.1128435 16 0 1.6812914e+09
2.9754739 -1.4192877 -0.75188506 47 1 1.6812914e+09
3.3790669 -2.4501846 0.95403486 9 14 1.6812914e+09
3.316133 -1.5819339 0.9738304 52 15 1.6812914e+09
3.3787954 -2.4500029 0.65401584 2 12 1.6812914e+09
3.3770933 -1.6195378 0.72061038 3 13 1.6812914e+09
7.6755476 -5.5703926 0.8266722 11 10 1.6812914e+09
3.3692293 -1.6222486 0.4542307 2 11 1.6812914e+09
9.3416634 -6.784996 0.20092082 1 8 1.6812914e+09
9.3096704 -4.4835143 0.53971452 9 9 1.6812914e+09
3.0581264 -2.22137 -0.19691344 42 6 1.6812914e+09
3.0806837 -1.4890255 -0.059120022 50 7 1.6812914e+09
3.0185518 -2.1950049 -0.453318 43 4 1.6812914e+09
3.0448935 -1.4717989 -0.29225907 50 5 1.6812914e+09
2.9823108 -2.1717963 -0.7090109 45 2 1.6812914e+09
3.0130866 -1.4545667 -0.52502447 46 3 1.6812914e+09
3.3801916 -2.4654293 -1.1109037 15 0 1.6812914e+09
2.9768414 -1.4333452 -0.75356966 47 1 1.6812914e+09
3.3685272 -2.4605274 0.95347333 9 14 1.6812914e+09
3.3149459 -1.5955889 0.97512275 53 15 1.6812914e+09
3.3742099 -2.4646966 0.65479624 2 12 1.6812914e+09
3.3758404 -1.6334486 0.72156352 3 13 1.6812914e+09
7.6410093 -5.5881934 0.82514697 11 10 1.6812914e+09
3.3680127 -1.6361628 0.4548392 2 11 1.6812914e+09
9.3288336 -6.8280492 0.2011826 1 8 1.6812914e+09
3.384443 -1.6484796 0.19547479 2 9 1.6812914e+09
3.0600331 -2.2399411 -0.1975698 43 6 1.6812914e+09
3.082212 -1.5030479 -0.059250917 50 7 1.6812914e+09
3.016489 -2.2104566 -0.4542307 45 4 1.6812914e+09
3.0442173 -1.4845958 -0.292694 50 5 1.6812914e+09
2.9806464 -2.1865513 -0.71043938 43 2 1.6812914e+09
3.0057697 -1.4639975 -0.52463293 47 3 1.6812914e+09
3.3735101 -2.4786437 -1.1115503 14 0 1.6812914e+09
2.9805908 -1.4479731 -0.75581574 47 1 1.6812914e+09
3.3614478 -2.4743016 0.95403486 9 14 1.6812914e+09
3.3177698 -1.6119387 0.97770762 52 15 1.6812914e+09
3.3790705 -2.4873002 0.65752786 2 12 1.6812914e+09
3.3764505 -1.6490335 0.72299331 3 13 1.6812914e+09
7.6354909 -5.625175 0.8266722 1 10 1.6812914e+09
3.3645108 -1.6489986 0.45514345 2 11 1.6812914e+09
9.3331051 -6.8813429 0.20179345 1 8 1.6812914e+09
3.3809104 -1.6613818 0.19560564 2 9 1.6812914e+09
3.0602303 -2.2565391 -0.1980949 43 6 1.6812914e+09
3.0769465 -1.5137978 -0.059250917 48 7 1.6812914e+09
3.0167377 -2.226871 -0.45544767 43 4 1.6812914e+09
3.043489 -1.497406 -0.29312888 48 5 1.6812914e+09
2.9808881 -2.20278 -0.71234405 43 2 1.6812914e+09
3.0095112 -1.478824 -0.52619898 47 3 1.6812914e+09
3.3628974 -2.4889672 -1.1109037 14 0 1.6812914e+09
2.9798965 -1.4605068 -0.75693882 47 1 1.6812914e+09
3.3590937 -2.4897897 0.95571953 11 14 1.6812914e+09
3.3167462 -1.6250515 0.97900003 53 15 1.6812914e+09
3.3727863 -2.4999628 0.65791804 2 12 1.6812914e+09
3.3731666 -1.6613027 0.72346991 3 13 1.6812914e+09
7.6258068 -5.6592159 0.82776165 7 10 1.6812914e+09
3.3787653 -1.670607 0.45788157 2 11 1.6812914e+09
9.3242817 -6.9226871 0.20209886 1 8 1.6812914e+09
3.3843358 -1.6770073 0.19612899 2 9 1.6812914e+09
3.058742 -2.2711425 -0.19848874 42 6 1.6812914e+09
3.0806057 -1.5289624 -0.05942544 52 7 1.6812914e+09
3.0173001 -2.2427878 -0.45666462 43 4 1.6812914e+09
3.0407393 -1.5085943 -0.29334635 47 5 1.6812914e+09
2.9810529 -2.2190375 -0.71424872 43 2 1.6812914e+09
3.0065448 -1.4904139 -0.52659053 46 3 1.6812914e+09
3.3928976 -2.5295749 -1.1238362 11 0 1.6812914e+09
2.9772224 -1.4714569 -0.75750035 48 1 1.6812914e+09
3.3542845 -2.5044162 0.95684248 11 14 1.6812914e+09
3.3197191 -1.6408888 0.98158485 53 15 1.6812914e+09
3.3857982 -2.527981 0.66221052 3 12 1.6812914e+09
3.3849401 -1.6817814 0.72728264 3 13 1.6812914e+09
3.3861463 -2.5291696 0.3667078 2 10 1.6812914e+09
3.3662477 -1.6790763 0.45696887 2 11 1.6812914e+09
9.3240786 -6.9731598 0.20262243 1 8 1.6812914e+09
3.3985715 -1.6988329 0.19730654 2 9 1.6812914e+09
3.0547924 -2.2847981 -0.19875129 42 6 1.6812914e+09
3.0844657 -1.5436324 -0.059599966 52 7 1.6812914e+09
3.0134242 -2.2562828 -0.45727313 42 4 1.6812914e+09
3.039912 -1.5214225 -0.29378125 48 5 1.6812914e+09
2.9791772 -2.2338495 -0.7156772 43 2 1.6812914e+09
3.0123734 -1.5064064 -0.52854812 46 3 1.6812914e+09
3.3902829 -2.5451641 -1.1257761 9 0 1.6812914e+09
2.9851577 -1.4883438 -0.76086944 48 1 1.6812914e+09
3.3533077 -2.5219703 0.95908862 28 14 1.6812914e+09
3.313971 -1.6524668 0.98158485 50 15 1.6812914e+09
3.4104924 -2.5650301 0.66884428 9 12 1.6812914e+09
3.3680725 -1.6881021 0.72489971 3 13 1.6812914e+09
3.4091296 -2.5649438 0.37019402 9 10 1.6812914e+09
3.3714561 -1.6963795 0.45849007 2 11 1.6812914e+09
3.3846891 -2.5483992 0.073343731 2 8 1.6812914e+09
3.3948512 -1.711807 0.19743738 2 9 1.6812914e+09
3.0547717 -2.30146 -0.19927639 43 6 1.6812914e+09
3.0790586 -1.5543897 -0.059599966 52 7 1.6812914e+09
3.0174122 -2.2757583 -0.45909855 45 4 1.6812914e+09
3.0434818 -1.5365022 -0.29465106 47 5 1.6812914e+09
2.9791925 -2.2501554 -0.71758187 43 2 1.6812914e+09
3.0093026 -1.5180213 -0.5289396 46 3 1.6812914e+09
3.4121876 -2.5803013 -1.1361221 8 0 1.6812914e+09
2.9821224 -1.4998465 -0.76143098 47 1 1.6812914e+09
3.3425429 -2.5321879 0.95852709 48 14 1.6812914e+09
3.316818 -1.6683545 0.98416966 52 15 1.6812914e+09
3.3582289 -2.5440965 0.66025943 26 12 1.6812914e+09
3.3796916 -1.7086856 0.72871244 4 13 1.6812914e+09
3.3644385 -2.5497375 0.366272 13 10 1.6812914e+09
3.3810127 -1.7159804 0.46061975 3 11 1.6812914e+09
3.375773 -2.5601983 0.073343731 9 8 1.6812914e+09
3.3888552 -1.7236469 0.19743738 2 9 1.6812914e+09
3.0546718 -2.3181496 -0.19980149 42 6 1.6812914e+09
3.0844848 -1.5713232 -0.059818123 52 7 1.6812914e+09
3.0173512 -2.292285 -0.46031553 43 4 1.6812914e+09
3.044492 -1.5510297 -0.29530343 48 5 1.6812914e+09
2.97913 -2.2664888 -0.71948653 42 2 1.6812914e+09
3.012794 -1.5329835 -0.53050566 48 3 1.6812914e+09
3.4046276 -2.5942547 -1.1367687 6 0 1.6812914e+09
2.9853003 -1.5151645 -0.76367712 47 1 1.6812914e+09
3.3336833 -2.5438402 0.95852709 53 14 1.6812914e+09
3.3152845 -1.6821023 0.98546207 50 15 1.6812914e+09
3.3512905 -2.5573027 0.66064966 47 12 1.6812914e+09
3.3737066 -1.7204725 0.72871244 4 13 1.6812914e+09
3.3629856 -2.5681007 0.36714357 75 10 1.6812914e+09
3.3661616 -1.7232594 0.4594028 3 11 1.6812914e+09
3.3663669 -2.5725539 0.073343731 100 8 1.6812914e+09
3.382515 -1.7360562 0.19743738 2 9 1.6812914e+09
3.0580499 -2.3384345 -0.20058915 43 6 1.6812914e+09
3.0789812 -1.5820805 -0.059818123 52 7 1.6812914e+09
3.0207474 -2.3123839 -0.46214095 43 4 1.6812914e+09
3.0412762 -1.5627828 -0.2955209 48 5 1.6812914e+09
2.9789896 -2.2828491 -0.7213912 43 2 1.6812914e+09
3.0030284 -1.5412419 -0.52972269 46 3 1.6812914e+09
3.391721 -2.6031809 -1.1354754 9 0 1.6812914e+09
2.9799931 -1.5255759 -0.76367712 48 1 1.6812914e+09
3.3127539 -2.5471277 0.955158 46 14 1.6812914e+09
3.3177013 -1.6986338 0.98804688 52 15 1.6812914e+09
3.3301525 -2.5605323 0.65830827 43 12 1.6812914e+09
3.3957641 -1.7473896 0.73490822 4 13 1.6812914e+09
3.3342667 -2.5646322 0.36496469 43 10 1.6812914e+09
4.9508119 -2.553905 0.67875999 1 11 1.6812914e+09
3.3375647 -2.5690341 0.072907418 70 8 1.6812914e+09
3.3853085 -1.7524329 0.19796075 2 9 1.6812914e+09
3.0558002 -2.3536675 -0.20098297 42 6 1.6812914e+09
3.0845435 -1.5985545 -0.060036272 52 7 1.6812914e+09
3.0126574 -2.3229141 -0.46214095 43 4 1.6812914e+09
3.0446532 -1.5779616 -0.29639071 47 5 1.6812914e+09
2.9807134 -2.300736 -0.72377205 42 2 1.6812914e+09
3.0086019 -1.5573756 -0.53168029 49 3 1.6812914e+09
3.3425043 -2.5839708 -1.1218964 12 0 1.6812914e+09
2.9854805 -1.5415423 -0.76648474 47 1 1.6812914e+09
3.3196945 -2.5700357 0.95965016 45 14 1.6812914e+09
3.3141973 -1.7107313 0.98869306 50 15 1.6812914e+09
3.31774 -2.5685365 0.65752786 43 12 1.6812914e+09
4.8329897 -2.5050442 1.0504135 1 13 1.6812914e+09
3.3213577 -2.5732028 0.36452889 43 10 1.6812914e+09
4.7590804 -2.4762614 0.65350807 1 11 1.6812914e+09
3.3191519 -2.5724277 0.072689272 77 8 1.6812914e+09
3.3772638 -1.7624971 0.1978299 2 9 1.6812914e+09
3.0598111 -2.372973 -0.20177063 42 6 1.6812914e+09
3.0789449 -1.6093118 -0.060036272 52 7 1.6812914e+09
3.0186532 -2.34355 -0.46427062 43 4 1.6812914e+09
3.0438213 -1.5903499 -0.29682562 47 5 1.6812914e+09
2.9784749 -2.3156486 -0.72520053 42 2 1.6812914e+09
3.0075276 -1.5701475 -0.53246325 47 3 1.6812914e+09
3.3334641 -2.5956228 -1.1218964 46 0 1.6812914e+09
2.9760275 -1.5491903 -0.76536173 47 1 1.6812914e+09
3.3164647 -2.5861046 0.96133471 45 14 1.6812914e+09
3.3189232 -1.7278521 0.99192411 50 15 1.6812914e+09
3.3126466 -2.5831404 0.65830827 42 12 1.6812914e+09
4.8133368 -2.5162239 1.0480305 1 13 1.6812914e+09
3.3147695 -2.5857356 0.36474678 43 10 1.6812914e+09
4.7196326 -2.4767425 0.64924872 1 11 1.6812914e+09
3.3062127 -2.5809202 0.072602004 43 8 1.6812914e+09
3.3799336 -1.7789155 0.19835328 2 9 1.6812914e+09
3.0554426 -2.3867147 -0.20203318 42 6 1.6812914e+09
3.086869 -1.626487 -0.060298059 50 7 1.6812914e+09
3.0163167 -2.3586612 -0.46518338 42 4 1.6812914e+09
3.0448663 -1.6044395 -0.29747799 48 5 1.6812914e+09
2.9761682 -2.3305733 -0.72662902 42 2 1.6812914e+09
3.0107741 -1.5852257 -0.53402936 47 3 1.6812914e+09
3.3039396 -2.5902641 -1.1147834 36 0 1.6812914e+09
2.9835527 -1.5663455 -0.76873088 47 1 1.6812914e+09
3.3208239 -2.6082041 0.96526545 46 14 1.6812914e+09
3.3192909 -1.742787 0.99386275 50 15 1.6812914e+09
3.3171992 -2.6053703 0.66103989 43 12 1.6812914e+09
nan nan nan 0 13 1.6812914e+09
3.3194273 -2.6080666 0.366272 43 10 1.6812914e+09
4.7131524 -2.4943609 0.649553 1 11 1.6812914e+09
3.3148625 -2.6063571 0.072994687 45 8 1.6812914e+09
3.3737035 -1.7907028 0.19835328 2 9 1.6812914e+09
3.062784 -2.4097223 -0.20308338 42 6 1.6812914e+09
3.0811725 -1.6372523 -0.060298059 52 7 1.6812914e+09
3.0217056 -2.3799293 -0.46731305 43 4 1.6812914e+09
3.0436487 -1.6173899 -0.2979129 47 5 1.6812914e+09
2.9795725 -2.3500724 -0.72948605 42 2 1.6812914e+09
3.0117695 -1.5991906 -0.53520393 48 3 1.6812914e+09
3.3024564 -2.6077704 -1.1173699 42 0 1.6812914e+09
2.9780669 -1.5767505 -0.76873088 47 1 1.6812914e+09
3.3193393 -2.625829 0.96751153 45 14 1.6812914e+09
3.3153226 -1.7554902 0.99450892 49 15 1.6812914e+09
3.3235729 -2.6291964 0.66416168 42 12 1.6812914e+09
nan nan nan 0 13 1.6812914e+09
3.3181124 -2.6258228 0.36714357 43 10 1.6812914e+09
4.7175579 -2.5177965 0.65137839 1 11 1.6812914e+09
3.3155386 -2.6256754 0.07321284 43 8 1.6812914e+09
3.3806472 -1.8095216 0.1991383 2 9 1.6812914e+09
3.0602221 -2.4250529 -0.20347722 42 6 1.6812914e+09
3.0795605 -1.6508907 -0.060385324 52 7 1.6812914e+09
3.0192096 -2.3950915 -0.46822575 43 4 1.6812914e+09
3.0420935 -1.630882 -0.2983478 47 5 1.6812914e+09
2.9809561 -2.3680959 -0.73186684 43 2 1.6812914e+09
3.008347 -1.6108565 -0.53559542 47 3 1.6812914e+09
3.3004332 -2.6258745 -1.1199565 42 0 1.6812914e+09
2.9744182 -1.5887998 -0.76929241 47 1 1.6812914e+09
3.3253901 -2.6495502 0.97200376 56 14 1.6812914e+09
3.3155699 -1.7704569 0.99644756 49 15 1.6812914e+09
3.3240283 -2.6484795 0.66611278 41 12 1.6812914e+09
4.5443711 -2.4368138 0.99465197 1 13 1.6812914e+09
3.3181989 -2.6457336 0.36823303 42 10 1.6812914e+09
4.7633915 -2.5636017 0.65898442 1 11 1.6812914e+09
3.3137064 -2.6440494 0.073387362 41 8 1.6812914e+09
3.3761907 -1.8230839 0.19926915 2 9 1.6812914e+09
3.0552137 -2.4393702 -0.20373976 41 6 1.6812914e+09
3.0781798 -1.6640018 -0.060472585 52 7 1.6812914e+09
3.0181618 -2.4123418 -0.46944273 43 4 1.6812914e+09
3.0429595 -1.6450355 -0.29900017 50 5 1.6812914e+09
2.9822497 -2.3861578 -0.73424768 42 2 1.6812914e+09
3.0070546 -1.6236882 -0.53637844 47 3 1.6812914e+09
3.2987821 -2.6434224 -1.1225429 42 0 1.6812914e+09
2.9774396 -1.6037821 -0.7715385 47 1 1.6812914e+09
3.3175561 -2.6632464 0.97256529 47 14 1.6812914e+09
3.3133137 -1.7848825 0.99773997 49 15 1.6812914e+09
3.3200741 -2.6652849 0.66728348 45 12 1.6812914e+09
4.4663014 -2.4161496 0.97940093 1 13 1.6812914e+09
3.3167086 -2.6635413 0.36910459 39 10 1.6812914e+09
4.8063259 -2.6094141 0.66628617 1 11 1.6812914e+09
3.3180907 -2.6665664 0.073692784 39 8 1.6812914e+09
3.3829703 -1.8420053 0.20005418 2 9 1.6812914e+09
3.0602937 -2.4609773 -0.20465869 41 6 1.6812914e+09
3.0811374 -1.6795105 -0.060647108 49 7 1.6812914e+09
3.0174515 -2.4290903 -0.47065967 42 4 1.6812914e+09
3.0371988 -1.6556476 -0.29900017 47 5 1.6812914e+09
2.9811242 -2.4032369 -0.73615235 42 2 1.6812914e+09
3.0075929 -1.6382333 -0.53755301 47 3 1.6812914e+09
3.304564 -2.6670616 -1.1277159 42 0 1.6812914e+09
2.9739659 -1.6153255 -0.77210003 47 1 1.6812914e+09
3.317708 -2.6824727 0.97537285 45 14 1.6812914e+09
3.3155575 -1.8010378 1.0003247 50 15 1.6812914e+09
3.3184283 -2.6830711 0.66884428 46 12 1.6812914e+09
4.4319749 -2.4176459 0.97368187 1 13 1.6812914e+09
3.3190053 -2.6845043 0.3704119 45 10 1.6812914e+09
4.8342071 -2.6464009 0.67145824 1 11 1.6812914e+09
3.3107054 -2.6797063 0.073736414 41 8 1.6812914e+09
3.3721402 -1.851405 0.1997925 2 9 1.6812914e+09
3.0613818 -2.4795058 -0.20531507 41 6 1.6812914e+09
3.0818324 -1.6938589 -0.060777999 50 7 1.6812914e+09
3.0128076 -2.4427354 -0.47126818 42 4 1.6812914e+09
3.0401373 -1.6710263 -0.29986998 47 5 1.6812914e+09
2.9803355 -2.4198196 -0.73805702 42 2 1.6812914e+09
3.0083535 -1.652279 -0.53872752 47 3 1.6812914e+09
3.3064737 -2.6877241 -1.1315957 41 0 1.6812914e+09
2.9725854 -1.6280313 -0.7732231 47 1 1.6812914e+09
3.3163493 -2.699615 0.97761905 45 14 1.6812914e+09
3.3201656 -1.8178086 1.0035558 49 15 1.6812914e+09
3.3133419 -2.6971805 0.66962481 45 12 1.6812914e+09
4.3765974 -2.4063601 0.96319675 1 13 1.6812914e+09
3.3158762 -2.7002156 0.37106556 45 10 1.6812914e+09
4.8406205 -2.6707959 0.67358792 1 11 1.6812914e+09
3.311486 -2.6985691 0.073954567 41 8 1.6812914e+09
3.3769114 -1.8686081 0.20044671 2 9 1.6812914e+09
3.0589449 -2.4943798 -0.20570891 42 6 1.6812914e+09
3.0805748 -1.7064861 -0.060865264 50 7 1.6812914e+09
3.0200634 -2.4652729 -0.47370207 43 4 1.6812914e+09
3.0389395 -1.6835066 -0.30030489 46 5 1.6812914e+09
2.977993 -2.4343519 -0.7394855 42 2 1.6812914e+09
3.0071814 -1.6646318 -0.53951061 47 3 1.6812914e+09
3.3124886 -2.7109158 -1.1367687 43 0 1.6812914e+09
2.9757078 -1.6425769 -0.77546918 47 1 1.6812914e+09
3.3182054 -2.7204463 0.9809882 45 14 1.6812914e+09
3.3180315 -1.8317162 1.0048481 47 15 1.6812914e+09
3.3172693 -2.7196941 0.67235631 43 12 1.6812914e+09
4.3960886 -2.4370658 0.96939254 1 13 1.6812914e+09
3.3160558 -2.7196746 0.37215504 43 10 1.6812914e+09
4.8681488 -2.7081535 0.67875999 1 11 1.6812914e+09
3.3155668 -2.7212183 0.074259989 43 8 1.6812914e+09
3.3703682 -1.8803843 0.20044671 2 9 1.6812914e+09
3.0617909 -2.5145543 -0.20649655 42 6 1.6812914e+09
3.0789671 -1.7196608 -0.060952526 49 7 1.6812914e+09
3.0152717 -2.4789531 -0.47431055 42 4 1.6812914e+09
3.0439243 -1.7001623 -0.30139217 48 5 1.6812914e+09
2.9770534 -2.4509752 -0.74139017 42 2 1.6812914e+09
3.0056677 -1.6775196 -0.54029363 47 3 1.6812914e+09
3.3123198 -2.7301457 -1.1400018 42 0 1.6812914e+09
2.9742167 -1.6553179 -0.77659225 47 1 1.6812914e+09
3.3180785 -2.7397721 0.98379588 43 14 1.6812914e+09
3.3200638 -1.8479748 1.0074331 47 15 1.6812914e+09
3.3172729 -2.7391219 0.67430741 43 12 1.6812914e+09
4.5418739 -2.5384657 1.0037073 11 13 1.6812914e+09
3.3199787 -2.742341 0.37368023 43 10 1.6812914e+09
3.4014597 -1.9093895 0.47400633 1 11 1.6812914e+09
3.3137517 -2.7391481 0.074434511 45 8 1.6812914e+09
3.374671 -1.8982447 0.2011009 2 9 1.6812914e+09
3.0626101 -2.5331864 -0.20715293 42 6 1.6812914e+09
3.0813613 -1.7358304 -0.061127048 49 7 1.6812914e+09
3.018064 -2.4989638 -0.476136 43 4 1.6812914e+09
3.0420156 -1.7137465 -0.3018271 46 5 1.6812914e+09
2.9779227 -2.4691889 -0.74377102 42 2 1.6812914e+09
3.0084081 -1.6928332 -0.54185975 47 3 1.6812914e+09
3.3097203 -2.7484422 -1.1425884 42 0 1.6812914e+09
2.9766333 -1.670966 -0.7788384 46 1 1.6812914e+09
3.3159842 -2.757571 0.9860419 43 14 1.6812914e+09
3.3220234 -1.8642701 1.0100179 47 15 1.6812914e+09
3.3171818 -2.7585833 0.67625856 9 12 1.6812914e+09
4.4987593 -2.5350585 0.99608177 11 13 1.6812914e+09
3.3137329 -2.7576787 0.37411603 39 10 1.6812914e+09
3.3926129 -1.9200314 0.47370207 1 11 1.6812914e+09
3.3132904 -2.7592769 0.074652657 43 8 1.6812914e+09
3.3763828 -1.9155183 0.20162426 2 9 1.6812914e+09
3.0628912 -2.5523899 -0.20780931 42 6 1.6812914e+09
3.0839837 -1.7515023 -0.06130157 48 7 1.6812914e+09
3.0165033 -2.5163703 -0.47735298 43 4 1.6812914e+09
3.0425167 -1.7280362 -0.30247945 47 5 1.6812914e+09
2.9805839 -2.4890122 -0.74662799 42 2 1.6812914e+09
3.0132267 -1.7094016 -0.54381728 47 3 1.6812914e+09
3.3075135 -2.7661784 -1.1451749 42 0 1.6812914e+09
2.9771478 -1.6849375 -0.78052294 48 1 1.6812914e+09
3.3151886 -2.7775323 0.98884952 43 14 1.6812914e+09
3.3151681 -1.8764335 1.0100179 47 15 1.6812914e+09
nan nan nan 0 12 1.6812914e+09
4.4680901 -2.5394228 0.99131578 11 13 1.6812914e+09
3.3346162 -2.7948375 0.37760225 2 10 1.6812914e+09
3.3729496 -1.9244992 0.47187662 2 11 1.6812914e+09
3.3132117 -2.7788613 0.074870817 9 8 1.6812914e+09
3.3826873 -1.934714 0.2024093 2 9 1.6812914e+09
3.0596981 -2.5678833 -0.20820314 41 6 1.6812914e+09
3.0800219 -1.763496 -0.061345205 48 7 1.6812914e+09
3.0190964 -2.5364664 -0.47917843 42 4 1.6812914e+09
3.0451176 -1.7435848 -0.30334926 47 5 1.6812914e+09
2.9793875 -2.5057232 -0.74853265 42 2 1.6812914e+09
3.0050964 -1.7186862 -0.5434258 47 3 1.6812914e+09
3.3052232 -2.7839329 -1.1477613 42 0 1.6812914e+09
2.9733655 -1.6965238 -0.78108448 46 1 1.6812914e+09
3.3189907 -2.799511 0.99278033 43 14 1.6812914e+09
3.3173242 -1.8921926 1.0126027 48 15 1.6812914e+09
3.4318132 -2.8947682 0.70396447 1 12 1.6812914e+09
4.4319458 -2.5383942 0.98512012 8 13 1.6812914e+09
9.2739716 -7.8320861 1.0589423 7 10 1.6812914e+09
3.3855832 -1.9473735 0.4746148 2 11 1.6812914e+09
9.096489 -7.6848841 0.20724732 1 8 1.6812914e+09
3.3719237 -1.9434325 0.20214762 2 9 1.6812914e+09
3.0626035 -2.587688 -0.2089908 41 6 1.6812914e+09
3.0803471 -1.7779771 -0.0614761 47 7 1.6812914e+09
3.0182443 -2.5528777 -0.48039538 42 4 1.6812914e+09
3.0393188 -1.7536732 -0.30334926 46 5 1.6812914e+09
2.978111 -2.5224562 -0.75043732 42 2 1.6812914e+09
3.0076418 -1.7340875 -0.54499185 47 3 1.6812914e+09
3.3341458 -2.8282745 -1.1613405 9 0 1.6812914e+09
2.9740639 -1.7100087 -0.78276902 46 1 1.6812914e+09
3.3166223 -2.8173907 0.99502635 43 14 1.6812914e+09
3.3232691 -1.9109684 1.0164798 48 15 1.6812914e+09
3.4009933 -2.8891361 0.69967204 1 12 1.6812914e+09
4.3996673 -2.5403719 0.97987759 8 13 1.6812914e+09
9.2631254 -7.8757048 1.0606854 1 10 1.6812914e+09
3.3572841 -1.9467574 0.47157243 2 11 1.6812914e+09
9.0867395 -7.7311707 0.20763999 1 8 1.6812914e+09
3.37376 -1.9601977 0.20267098 2 9 1.6812914e+09
3.0611548 -2.6048377 -0.2095159 42 6 1.6812914e+09
3.0806081 -1.7924815 -0.061606992 47 7 1.6812914e+09
3.0187562 -2.5714469 -0.48191655 42 4 1.6812914e+09
3.0414879 -1.7698001 -0.3042191 46 5 1.6812914e+09
2.9823534 -2.5439913 -0.75377047 42 2 1.6812914e+09
3.0079796 -1.7482893 -0.54616642 47 3 1.6812914e+09
nan nan nan 0 0 1.6812914e+09
2.978322 -1.7269933 -0.7855767 46 1 1.6812914e+09
3.319721 -2.8400414 0.99895704 43 14 1.6812914e+09
3.3207605 -1.9249743 1.0177723 49 15 1.6812914e+09
3.3965149 -2.9058082 0.70084268 1 12 1.6812914e+09
4.3546968 -2.534759 0.97177547 7 13 1.6812914e+09
9.2550001 -7.9274268 1.0630821 1 10 1.6812914e+09
3.3611867 -1.9647132 0.4730936 2 11 1.6812914e+09
9.1095781 -7.8083525 0.20881803 1 8 1.6812914e+09
3.388108 -1.9851457 0.20397937 3 9 1.6812914e+09
3.0610607 -2.6241682 -0.21017228 41 6 1.6812914e+09
3.0786479 -1.8057477 -0.061694253 47 7 1.6812914e+09
3.0187228 -2.5905781 -0.48343778 42 4 1.6812914e+09
3.0438912 -1.7854353 -0.30508891 46 5 1.6812914e+09
2.9790378 -2.5591867 -0.75519896 42 2 1.6812914e+09
3.0039907 -1.7600238 -0.5465579 46 3 1.6812914e+09
4.3684077 -3.7591014 -1.5337971 3 0 1.6812914e+09
2.9722755 -1.7373792 -0.7855767 46 1 1.6812914e+09
3.3166683 -2.8585548 1.0012032 43 14 1.6812914e+09
3.319942 -1.9407815 1.0197109 48 15 1.6812914e+09
3.3914514 -2.9230764 0.70201337 2 12 1.6812914e+09
4.3242011 -2.5382988 0.96700948 7 13 1.6812914e+09
9.2744112 -8.0003595 1.0685294 1 10 1.6812914e+09
3.3646591 -1.9833069 0.4746148 2 11 1.6812914e+09
9.1201048 -7.8727751 0.20969065 1 8 1.6812914e+09
9.3397627 -5.5068469 0.56640589 7 9 1.6812914e+09
3.063216 -2.6446307 -0.21095993 41 6 1.6812914e+09
3.0787859 -1.8202914 -0.061825149 47 7 1.6812914e+09
3.0152919 -2.6059699 -0.4843505 42 4 1.6812914e+09
3.0419312 -1.7985791 -0.30552381 46 5 1.6812914e+09
2.9770582 -2.5765157 -0.75710362 42 2 1.6812914e+09
3.0039022 -1.7747818 -0.54773247 46 3 1.6812914e+09
4.3625579 -3.7806559 -1.5363837 3 0 1.6812914e+09
2.9724946 -1.7514454 -0.78726125 46 1 1.6812914e+09
3.3177044 -2.8797002 1.0045723 43 14 1.6812914e+09
3.3193936 -1.9560291 1.0216495 49 15 1.6812914e+09
3.3924124 -2.944613 0.7043547 2 12 1.6812914e+09
4.292069 -2.5396521 0.96176702 7 13 1.6812914e+09
9.2802668 -8.0620899 1.0724514 1 10 1.6812914e+09
3.3619854 -1.99757 0.4752233 2 11 1.6812914e+09
9.1152029 -7.9242458 0.21021423 1 8 1.6812914e+09
9.2732563 -5.511373 0.56352741 21 9 1.6812914e+09
3.0577326 -2.6585851 -0.21122248 40 6 1.6812914e+09
3.0831571 -1.8374118 -0.062043298 46 7 1.6812914e+09
3.0192742 -2.6278889 -0.48648018 41 4 1.6812914e+09
3.0399165 -1.8117311 -0.30595872 46 5 1.6812914e+09
2.9772933 -2.5949585 -0.75948447 41 2 1.6812914e+09
3.0019345 -1.7877777 -0.5485155 46 3 1.6812914e+09
4.3129549 -3.764092 -1.5234511 4 0 1.6812914e+09
2.9747477 -1.7667755 -0.78950739 46 1 1.6812914e+09
3.3168001 -2.8992836 1.00738 43 14 1.6812914e+09
3.318779 -1.9712963 1.0235881 47 15 1.6812914e+09
3.3951225 -2.9678178 0.70708627 2 12 1.6812914e+09
4.2663064 -2.5445776 0.95795429 6 13 1.6812914e+09
9.2689352 -8.1091957 1.0744123 1 10 1.6812914e+09
3.369904 -2.0182004 0.47735298 2 11 1.6812914e+09
9.1645851 -8.0235338 0.2120031 6 8 1.6812914e+09
9.2475348 -5.5398636 0.56313491 15 9 1.6812914e+09
3.0615764 -2.6807604 -0.21214141 40 6 1.6812914e+09
3.0788691 -1.8494474 -0.062086932 46 7 1.6812914e+09
3.0138135 -2.641685 -0.48708868 41 4 1.6812914e+09
3.0421202 -1.8274502 -0.30682853 46 5 1.6812914e+09
2.9792798 -2.6150544 -0.7623415 41 2 1.6812914e+09
2.9999135 -1.8007817 -0.54929852 46 3 1.6812914e+09
nan nan nan 0 0 1.6812914e+09
2.9706542 -1.778397 -0.79006892 46 1 1.6812914e+09
3.3176272 -2.920506 1.0107491 42 14 1.6812914e+09
3.3201721 -1.9878212 1.026173 47 15 1.6812914e+09
3.3958602 -2.9894454 0.70942765 2 12 1.6812914e+09
4.2321439 -2.5443041 0.9522351 4 13 1.6812914e+09
9.2686005 -8.1662006 1.0776807 1 10 1.6812914e+09
3.3670907 -2.032511 0.47796145 2 11 1.6812914e+09
9.2902479 -8.1910496 0.21558084 8 8 1.6812914e+09
9.2495184 -5.5850048 0.56444329 14 9 1.6812914e+09
3.0596874 -2.6980388 -0.2126665 41 6 1.6812914e+09
3.0830941 -1.8666427 -0.062305089 47 7 1.6812914e+09
3.0175915 -2.6636899 -0.48921835 41 4 1.6812914e+09
3.042119 -1.8419195 -0.3074809 46 5 1.6812914e+09
2.9793239 -2.6335692 -0.76472229 41 2 1.6812914e+09
3.0020661 -1.8163438 -0.55086458 46 3 1.6812914e+09
nan nan nan 0 0 1.6812914e+09
2.9790406 -1.7975461 -0.79399961 46 1 1.6812914e+09
3.3165238 -2.9401529 1.0135567 42 14 1.6812914e+09
3.3173513 -2.0018892 1.0274653 46 15 1.6812914e+09
3.3854043 -3.001281 0.70942765 2 12 1.6812914e+09
4.2001357 -2.5450928 0.94699252 4 13 1.6812914e+09
9.2735662 -8.2282619 1.0816028 1 10 1.6812914e+09
3.3666968 -2.0475264 0.47887418 2 11 1.6812914e+09
9.308321 -8.2649269 0.21667162 8 8 1.6812914e+09
9.268364 -5.6406045 0.56679839 12 9 1.6812914e+09
3.0577152 -2.7153366 -0.21319161 41 6 1.6812914e+09
3.0808301 -1.8799919 -0.062392347 47 7 1.6812914e+09
3.0175443 -2.6824534 -0.49073952 41 4 1.6812914e+09
3.035671 -1.8525274 -0.3074809 46 5 1.6812914e+09
2.9760725 -2.6483314 -0.76615083 41 2 1.6812914e+09
3.0044668 -1.8314188 -0.55243069 46 3 1.6812914e+09
4.0263953 -3.5888321 -1.4348633 7 0 1.6812914e+09
2.9789975 -1.8117235 -0.79568422 46 1 1.6812914e+09
3.3122063 -2.9560032 1.0152414 42 14 1.6812914e+09
3.3210201 -2.0191398 1.0306964 46 15 1.6812914e+09
3.3975334 -3.0322301 0.71411031 2 12 1.6812914e+09
4.2189193 -2.5756056 0.9531883 3 13 1.6812914e+09
9.2726393 -8.2854767 1.0848711 14 10 1.6812914e+09
3.3658805 -2.0631487 0.47978687 2 11 1.6812914e+09
9.3199949 -8.3307362 0.21758786 8 8 1.6812914e+09
9.2432213 -5.6673956 0.56640589 16 9 1.6812914e+09
3.0598574 -2.7354496 -0.21397926 41 6 1.6812914e+09
3.084903 -1.8972685 -0.0626105 47 7 1.6812914e+09
3.0141776 -2.6974125 -0.49165228 42 4 1.6812914e+09
3.0422511 -1.870394 -0.30878565 46 5 1.6812914e+09
2.974118 -2.6652582 -0.76805544 41 2 1.6812914e+09
3.0043719 -1.8457642 -0.5536052 46 3 1.6812914e+09
3.9868939 -3.5786593 -1.425164 7 0 1.6812914e+09
2.9771309 -1.8241318 -0.79680723 46 1 1.6812914e+09
3.3163579 -2.9805796 1.0197335 41 14 1.6812914e+09
3.3201339 -2.034498 1.032635 46 15 1.6812914e+09
3.3869283 -3.0440714 0.71411031 2 12 1.6812914e+09
4.216177 -2.5941689 0.95461804 4 13 1.6812914e+09
9.2747364 -8.3428335 1.0883573 1 10 1.6812914e+09
3.3776715 -2.0866008 0.48252505 2 11 1.6812914e+09
9.3131485 -8.3832893 0.21811143 8 8 1.6812914e+09
9.2255068 -5.7009382 0.56653672 1 9 1.6812914e+09
3.063273 -2.7578118 -0.21489818 41 6 1.6812914e+09
3.0803881 -1.9093398 -0.062654138 47 7 1.6812914e+09
3.0157993 -2.7178895 -0.4934777 42 4 1.6812914e+09
3.0438495 -1.8867697 -0.30965546 46 5 1.6812914e+09
2.9739027 -2.6838491 -0.77043635 41 2 1.6812914e+09
3.0042138 -1.8601317 -0.55477977 46 3 1.6812914e+09
3.9636323 -3.582835 -1.4212842 6 0 1.6812914e+09
2.9745739 -1.8375868 -0.7979303 46 1 1.6812914e+09
3.3167667 -3.0019505 1.0231028 42 14 1.6812914e+09
3.319181 -2.0498748 1.0345737 46 15 1.6812914e+09
3.3927531 -3.0707951 0.71762234 2 12 1.6812914e+09
4.2070961 -2.6088707 0.95461804 4 13 1.6812914e+09
9.2810001 -8.410224 1.0927151 1 10 1.6812914e+09
3.3703673 -2.0983784 0.48252505 3 11 1.6812914e+09
9.3267956 -8.4576721 0.21915859 8 8 1.6812914e+09
9.3465567 -5.8231049 0.57530296 1 9 1.6812914e+09
3.0660849 -2.7807667 -0.21581714 41 6 1.6812914e+09
3.0843124 -1.9266887 -0.062872291 46 7 1.6812914e+09
3.0149999 -2.7372684 -0.49499893 41 4 1.6812914e+09
3.0435863 -1.9013332 -0.3103078 46 5 1.6812914e+09
2.9754093 -2.7041218 -0.77329332 41 2 1.6812914e+09
3.0039918 -1.8745203 -0.55595434 46 3 1.6812914e+09
3.9403899 -3.5868912 -1.4174045 6 0 1.6812914e+09
2.9764202 -1.8530979 -0.80017644 46 1 1.6812914e+09
3.3183384 -3.0255814 1.0270334 42 14 1.6812914e+09
3.3178 -2.0658484 1.0365121 46 15 1.6812914e+09
3.385124 -3.0865386 0.7184028 2 12 1.6812914e+09
4.212081 -2.6333663 0.95795429 4 13 1.6812914e+09
9.2736597 -8.4627171 1.0953299 1 10 1.6812914e+09
3.3710666 -2.1159842 0.48374203 2 11 1.6812914e+09
9.0554466 -8.2693348 0.21344292 7 8 1.6812914e+09
9.3430929 -5.8663082 0.57634968 1 9 1.6812914e+09
3.0637305 -2.7981899 -0.21634223 40 6 1.6812914e+09
3.0796857 -1.9387722 -0.062915921 46 7 1.6812914e+09
3.0164106 -2.7578268 -0.49682435 41 4 1.6812914e+09
3.0453682 -1.9172426 -0.31117764 46 5 1.6812914e+09
2.9799538 -2.7282739 -0.77710259 41 2 1.6812914e+09
3.0033762 -1.8894542 -0.55712885 46 3 1.6812914e+09
3.9652174 -3.6349051 -1.4309835 4 0 1.6812914e+09
2.9740641 -1.86606 -0.80129945 46 1 1.6812914e+09
3.316726 -3.045388 1.0298411 41 14 1.6812914e+09
3.3187575 -2.0825419 1.0390971 43 15 1.6812914e+09
3.3888755 -3.1117027 0.7215246 2 12 1.6812914e+09
4.1820869 -2.63499 0.9531883 4 13 1.6812914e+09
9.1890564 -8.4444733 1.088793 13 10 1.6812914e+09
3.367857 -2.1303868 0.4843505 3 11 1.6812914e+09
8.9750156 -8.2535114 0.21222125 7 8 1.6812914e+09
9.3373308 -5.9082246 0.57726556 2 9 1.6812914e+09
3.0612915 -2.8156307 -0.21686734 40 6 1.6812914e+09
3.0834606 -1.9561925 -0.063134074 46 7 1.6812914e+09
3.017714 -2.7784281 -0.49864978 41 4 1.6812914e+09
3.0407617 -1.9291929 -0.31139508 46 5 1.6812914e+09
2.9776268 -2.7453165 -0.7790072 41 2 1.6812914e+09
3.0051105 -1.9052039 -0.5586949 46 3 1.6812914e+09
nan nan nan 0 0 1.6812914e+09
2.9757755 -1.8816273 -0.80354553 45 1 1.6812914e+09
3.3203797 -3.0701833 1.0343333 41 14 1.6812914e+09
3.3196385 -2.099267 1.0416819 41 15 1.6812914e+09
3.3852425 -3.1302218 0.72308546 2 12 1.6812914e+09
4.1811562 -2.6548262 0.95509464 4 13 1.6812914e+09
9.2143536 -8.5272532 1.0953299 26 10 1.6812914e+09
3.3733392 -2.1495297 0.48617592 2 11 1.6812914e+09
8.9039745 -8.2457199 0.21121775 7 8 1.6812914e+09
9.327178 -5.9474893 0.57791978 2 9 1.6812914e+09
3.0624297 -2.8364825 -0.21765499 41 6 1.6812914e+09
3.082937 -1.9709755 -0.063264973 46 7 1.6812914e+09
3.0134544 -2.7940087 -0.49956253 41 4 1.6812914e+09
3.0424094 -1.945151 -0.31226492 46 5 1.6812914e+09
2.9810936 -2.7668681 -0.78234047 41 2 1.6812914e+09
3.0050244 -1.9191377 -0.55986947 45 3 1.6812914e+09
4.2279572 -3.9306042 -1.5363837 4 0 1.6812914e+09
2.9753578 -1.8959225 -0.8052302 46 1 1.6812914e+09
3.3155274 -3.0861585 1.0360178 41 14 1.6812914e+09
3.3269279 -2.1193297 1.0462054 39 15 1.6812914e+09
3.3929121 -3.1582618 0.72698772 2 12 1.6812914e+09
4.178535 -2.6726382 0.95652443 4 13 1.6812914e+09
9.1626711 -8.5389862 1.0927151 16 10 1.6812914e+09
3.3679049 -2.1626301 0.48648018 2 11 1.6812914e+09
8.8253946 -8.2274694 0.20999606 7 8 1.6812914e+09
3.3822207 -2.1759458 0.20895129 2 9 1.6812914e+09
3.0603077 -2.8534355 -0.21818008 40 6 1.6812914e+09
3.08445 -1.9871293 -0.063439496 46 7 1.6812914e+09
3.0150523 -2.8141499 -0.50138795 41 4 1.6812914e+09
3.0464201 -1.9619586 -0.3133522 45 5 1.6812914e+09
2.9750016 -2.7806101 -0.78329271 41 2 1.6812914e+09
3.0086973 -1.9362833 -0.56182706 45 3 1.6812914e+09
4.1948242 -3.9271772 -1.5292708 4 0 1.6812914e+09
2.9793134 -1.9123447 -0.80803776 46 1 1.6812914e+09
3.3207254 -3.1127136 1.0410715 41 14 1.6812914e+09
3.3235774 -2.1335342 1.0474976 34 15 1.6812914e+09
3.3908722 -3.1785333 0.72893888 2 12 1.6812914e+09
4.1402841 -2.6686211 0.94985217 3 13 1.6812914e+09
9.1088781 -8.5454645 1.0896647 12 10 1.6812914e+09
3.3728445 -2.1824472 0.4883056 2 11 1.6812914e+09
8.772934 -8.2359819 0.20942888 7 8 1.6812914e+09
3.3683152 -2.1836715 0.20855878 2 9 1.6812914e+09
3.0594254 -2.872649 -0.21883647 39 6 1.6812914e+09
3.0837893 -2.0019596 -0.063570388 47 7 1.6812914e+09
3.0160551 -2.8348587 -0.50321335 41 4 1.6812914e+09
3.0412993 -1.9744647 -0.31356964 45 5 1.6812914e+09
2.9777825 -2.802758 -0.78662598 41 2 1.6812914e+09
3.0039935 -1.9481146 -0.56221861 45 3 1.6812914e+09
4.1793337 -3.9401391 -1.5286242 4 0 1.6812914e+09
2.9784255 -1.9272138 -0.80972236 46 1 1.6812914e+09
3.3186944 -3.1326509 1.0438793 42 14 1.6812914e+09
3.3262565 -2.1516693 1.0507288 29 15 1.6812914e+09
3.3887312 -3.1988287 0.73088998 3 12 1.6812914e+09
4.0815182 -2.6510205 0.93841386 3 13 1.6812914e+09
9.0376806 -8.5411539 1.0848711 12 10 1.6812914e+09
3.3693662 -2.1969132 0.4889141 2 11 1.6812914e+09
8.7172661 -8.244031 0.20881803 7 8 1.6812914e+09
3.3832951 -2.211 0.20999801 2 9 1.6812914e+09
3.056128 -2.890708 -0.21936156 9 6 1.6812914e+09
3.0851564 -2.0181746 -0.06374491 45 7 1.6812914e+09
3.0164516 -2.8561349 -0.50503886 42 4 1.6812914e+09
3.0427322 -1.9905119 -0.31443948 45 5 1.6812914e+09
2.9733222 -2.8182025 -0.78805441 41 2 1.6812914e+09
3.0033813 -1.9626328 -0.56339312 45 3 1.6812914e+09
nan nan nan 0 0 1.6812914e+09
2.9778073 -1.9415824 -0.81140697 46 1 1.6812914e+09
3.3195438 -3.156549 1.04781 41 14 1.6812914e+09
3.3244212 -2.1677964 1.0526673 23 15 1.6812914e+09
3.3984504 -3.2316554 0.7355727 3 12 1.6812914e+09
3.9649413 -2.5961595 0.91363102 2 13 1.6812914e+09
8.9771471 -8.543458 1.081167 12 10 1.6812914e+09
3.3633666 -2.2106082 0.48921835 3 11 1.6812914e+09
8.7065344 -8.2916498 0.20925434 6 8 1.6812914e+09
3.371383 -2.2200546 0.20973632 2 9 1.6812914e+09
3.165283 -3.0150511 -0.22802575 1 6 1.6812914e+09
3.0822706 -2.0316782 -0.063832171 45 7 1.6812914e+09
3.0154393 -2.8752124 -0.50656003 41 4 1.6812914e+09
3.04409 -2.0065932 -0.31530929 45 5 1.6812914e+09
2.9736187 -2.8392546 -0.79091138 41 2 1.6812914e+09
3.0023592 -1.9776946 -0.56456769 45 3 1.6812914e+09
nan nan nan 0 0 1.6812914e+09
2.9750874 -1.954635 -0.81252998 45 1 1.6812914e+09
3.3155403 -3.1748588 1.050056 41 14 1.6812914e+09
3.3188539 -2.1807115 1.0533135 13 15 1.6812914e+09
3.3782349 -3.2349558 0.73362154 3 12 1.6812914e+09
nan nan nan 0 13 1.6812914e+09
8.9131117 -8.541996 1.0770271 12 10 1.6812914e+09
3.3701222 -2.2319098 0.49134803 3 11 1.6812914e+09
8.6017771 -8.2493143 0.20742182 6 8 1.6812914e+09
3.3781867 -2.2414553 0.21065222 2 9 1.6812914e+09
7.1817884 -6.891933 -0.52155805 1 6 1.6812914e+09
3.0772436 -2.0438046 -0.063875802 45 7 1.6812914e+09
3.0358007 -2.9149504 -0.5117321 11 4 1.6812914e+09
3.0432959 -2.021333 -0.31596163 45 5 1.6812914e+09
2.9725323 -2.8581262 -0.79329228 41 2 1.6812914e+09
3.0016141 -1.992251 -0.56574225 45 3 1.6812914e+09
3.0525827 -2.9382224 -1.1251295 1 0 1.6812914e+09
2.9702792 -1.9663503 -0.81309152 45 1 1.6812914e+09
3.3242805 -3.2044415 1.0562328 42 14 1.6812914e+09
10.789089 -7.1278181 3.4507327 38 15 1.6812914e+09
3.4030328 -3.2804291 0.74142605 4 12 1.6812914e+09
3.4235811 -2.2758689 0.79162282 2 13 1.6812914e+09
8.8560629 -8.5438356 1.0735409 11 10 1.6812914e+09
3.3668346 -2.2458224 0.4919565 2 11 1.6812914e+09
8.5348167 -8.2395935 0.20646197 6 8 1.6812914e+09
3.3790436 -2.2581849 0.21117558 2 9 1.6812914e+09
7.1642809 -6.9209161 -0.52195185 1 6 1.6812914e+09
3.0846446 -2.0642474 -0.064181224 43 7 1.6812914e+09
3.0350349 -2.9336278 -0.51325327 2 4 1.6812914e+09
3.0445077 -2.0374739 -0.31683147 45 5 1.6812914e+09
2.9753773 -2.8799212 -0.79662538 41 2 1.6812914e+09
3.0073175 -2.0104117 -0.56809133 46 3 1.6812914e+09
3.0613744 -2.9673564 -1.1322423 2 0 1.6812914e+09
2.9735391 -1.9834524 -0.81589919 45 1 1.6812914e+09
3.3200641 -3.2228158 1.058479 40 14 1.6812914e+09
10.738003 -7.1480484 3.4423323 43 15 1.6812914e+09
3.3968744 -3.2974494 0.74259669 4 12 1.6812914e+09
3.3707237 -2.2578096 0.78113782 1 13 1.6812914e+09
8.7961149 -8.5484619 1.0700547 12 10 1.6812914e+09
3.371341 -2.2658525 0.49378195 2 11 1.6812914e+09
8.4920187 -8.2586193 0.20615654 3 8 1.6812914e+09
3.3645275 -2.266377 0.21078305 2 9 1.6812914e+09
8.5324135 -8.3037138 -0.6242156 1 6 1.6812914e+09
3.085717 -2.0805817 -0.064355746 45 7 1.6812914e+09
3.0544736 -2.9741726 -0.51842541 1 4 1.6812914e+09
3.0435772 -2.052258 -0.31748381 43 5 1.6812914e+09
2.9723334 -2.897145 -0.7985301 40 2 1.6812914e+09
3.0023313 -2.0222738 -0.56848288 45 3 1.6812914e+09
3.0389056 -2.966212 -1.1277159 2 0 1.6812914e+09
2.9706447 -1.9965322 -0.8170222 45 1 1.6812914e+09
3.3204172 -3.2468896 1.0624096 38 14 1.6812914e+09
10.723767 -7.1954265 3.4462092 53 15 1.6812914e+09
3.4218287 -3.3461471 0.75079143 4 12 1.6812914e+09
3.3685329 -2.274262 0.78256762 2 13 1.6812914e+09
8.7288485 -8.5425282 1.0654789 11 10 1.6812914e+09
3.3630137 -2.2781935 0.49378195 2 11 1.6812914e+09
3.4473763 -3.3746982 0.083597019 2 8 1.6812914e+09
3.3772695 -2.2921045 0.21209145 2 9 1.6812914e+09
8.4695034 -8.3002415 -0.62172139 2 6 1.6812914e+09
3.0867128 -2.0969486 -0.064530268 46 7 1.6812914e+09
3.6993752 -3.6278818 -0.63099432 2 4 1.6812914e+09
3.0425804 -2.0670609 -0.31813619 43 5 1.6812914e+09
2.9634452 -2.9097395 -0.79900622 4 2 1.6812914e+09
3.0010328 -2.0374172 -0.56965739 45 3 1.6812914e+09
4.1027875 -4.0335751 -1.5312107 7 0 1.6812914e+09
2.9697144 -2.0109799 -0.81870681 45 1 1.6812914e+09
3.3160038 -3.2652998 1.0646558 34 14 1.6812914e+09
10.718597 -7.2463336 3.4526715 63 15 1.6812914e+09
4.456645 -4.3893566 0.98297477 1 12 1.6812914e+09
3.3991575 -2.3121886 0.79162282 2 13 1.6812914e+09
8.6794662 -8.5537128 1.0630821 8 10 1.6812914e+09
3.3776031 -2.3052809 0.49712861 2 11 1.6812914e+09
8.4003448 -8.2843494 0.20532754 4 8 1.6812914e+09
3.3836846 -2.3137274 0.21300732 2 9 1.6812914e+09
3.419549 -3.3732574 -0.25073645 2 6 1.6812914e+09
3.0835032 -2.1105294 -0.06461753 45 7 1.6812914e+09
nan nan nan 0 4 1.6812914e+09
3.0435743 -2.0832858 -0.319006 43 5 1.6812914e+09
nan nan nan 0 2 1.6812914e+09
3.0061414 -2.0562289 -0.57200652 45 3 1.6812914e+09
3.0558677 -3.0247447 -1.1419418 1 0 1.6812914e+09
2.9727476 -2.0281854 -0.82151449 45 1 1.6812914e+09
3.3149614 -3.2871511 1.068025 28 14 1.6812914e+09
10.719193 -7.3013692 3.461072 70 15 1.6812914e+09
4.4535656 -4.4170623 0.98570645 1 12 1.6812914e+09
3.3870139 -2.3212698 0.79066974 3 13 1.6812914e+09
8.6124392 -8.5471115 1.0585065 6 10 1.6812914e+09
3.3658469 -2.3136621 0.4965201 2 11 1.6812914e+09
8.3766966 -8.3189068 0.20545845 4 8 1.6812914e+09
9.3320265 -6.4192715 0.59178883 4 9 1.6812914e+09
3.4502466 -3.4274149 -0.25388706 2 6 1.6812914e+09
3.0843556 -2.126946 -0.064792052 46 7 1.6812914e+09
3.0231612 -3.0059953 -0.51842541 1 4 1.6812914e+09
3.0424395 -2.0981312 -0.31965837 43 5 1.6812914e+09
3.0478947 -3.0337677 -0.82757616 1 2 1.6812914e+09
3.0013413 -2.0675845 -0.57239807 45 3 1.6812914e+09
3.036742 -3.0268657 -1.1387085 2 0 1.6812914e+09
2.971678 -2.0426822 -0.82319903 45 1 1.6812914e+09
3.3212771 -3.3153427 1.0736401 19 14 1.6812914e+09
10.63317 -7.2945461 3.4410398 1 15 1.6812914e+09
4.4616046 -4.4544935 0.99077928 1 12 1.6812914e+09
3.3752549 -2.329705 0.78971648 3 13 1.6812914e+09
8.5631771 -8.5577545 1.0561097 6 10 1.6812914e+09
3.3720407 -2.3352704 0.49864978 3 11 1.6812914e+09
3.4548631 -3.4524379 0.084644169 2 8 1.6812914e+09
3.3883851 -2.3509145 0.21431573 2 9 1.6812914e+09
nan nan nan 0 6 1.6812914e+09
3.0851302 -2.1433942 -0.064966574 46 7 1.6812914e+09
3.0219421 -3.024785 -0.51994663 2 4 1.6812914e+09
3.0416071 -2.1124632 -0.32031074 43 5 1.6812914e+09
2.9957023 -3.0026734 -0.81614822 2 2 1.6812914e+09
3.0022268 -2.0836697 -0.57396412 45 3 1.6812914e+09
3.0091207 -3.0203328 -1.1322423 2 0 1.6812914e+09
2.9749117 -2.0594454 -0.82600665 45 1 1.6812914e+09
3.3148367 -3.332099 1.0753248 12 14 1.6812914e+09
10.728861 -7.4153357 3.4804583 76 15 1.6812914e+09
4.4442878 -4.4682894 0.99038905 1 12 1.6812914e+09
3.3852503 -2.3540626 0.79400587 3 13 1.6812914e+09
8.5049067 -8.5560722 1.0524056 1 10 1.6812914e+09
3.3679421 -2.3498619 0.49925828 2 11 1.6812914e+09
3.0095065 -3.0281572 0.073910944 6 8 1.6812914e+09
9.3413591 -6.5197725 0.59519064 3 9 1.6812914e+09
3.0012712 -3.0219738 -0.22211836 7 6 1.6812914e+09
3.0858281 -2.1598735 -0.065141104 45 7 1.6812914e+09
3.0235939 -3.0476511 -0.52207631 2 4 1.6812914e+09
3.0420127 -2.1292994 -0.32118055 45 5 1.6812914e+09
3.9106603 -3.9479856 -1.0713731 9 2 1.6812914e+09
