# .PCD v0.7 - Point Cloud Data file format
VERSION 0.7
FIELDS x y z intensity ring timestamp
SIZE 4 4 4 4 2 8
TYPE F F F F U F
COUNT 1 1 1 1 1 1
WIDTH 943
HEIGHT 1
VIEWPOINT 0 0 0 1 0 0 0
POINTS 943
DATA ascii
-8.1863737 6.177927 -1.2531656 34 4 1.6812926e+09
-10.443061 5.2597208 -1.0179052 38 5 1.6812926e+09
-5.0171747 3.7909105 -1.2132705 17 2 1.6812926e+09
-6.6890168 3.3679202 -1.1819901 22 3 1.6812926e+09
-4.0971599 3.0998421 -1.366321 16 0 1.6812926e+09
-5.2057452 2.6143248 -1.3347503 17 1 1.6812926e+09
-8.1043415 6.1426616 2.3359535 46 14 1.6812926e+09
-10.382741 5.2113333 3.0991974 40 15 1.6812926e+09
-8.1239939 6.157578 1.6053824 46 12 1.6812926e+09
-10.372787 5.2334952 2.2495244 40 13 1.6812926e+09
-8.1227245 6.1588564 0.8887707 44 10 1.6812926e+09
-10.395273 5.2652869 1.4244529 40 11 1.6812926e+09
-8.1223679 6.1630597 0.17736006 46 8 1.6812926e+09
-10.425022 5.2917547 0.6108914 40 9 1.6812926e+09
-8.1520338 6.1900635 -0.53639221 40 6 1.6812926e+09
-10.434933 5.3036451 -0.20371319 40 7 1.6812926e+09
-8.1509333 6.1959515 -1.2510359 34 4 1.6812926e+09
-10.388182 5.2799201 -1.014426 38 5 1.6812926e+09
-5.003912 3.8084006 -1.2132705 19 2 1.6812926e+09
-6.6684117 3.3867819 -1.1804241 23 3 1.6812926e+09
-4.0767131 3.1068032 -1.3630879 17 0 1.6812926e+09
-5.183085 2.6267903 -1.3313812 19 1 1.6812926e+09
-8.0751057 6.1649995 2.3337073 46 14 1.6812926e+09
-10.373107 5.2519045 3.1017823 33 15 1.6812926e+09
-8.08675 6.1739082 1.6022606 50 12 1.6812926e+09
-10.382893 5.2841296 2.2557201 40 13 1.6812926e+09
-8.0862455 6.177999 0.88724542 46 10 1.6812926e+09
-10.414403 5.3207183 1.4296249 42 11 1.6812926e+09
-8.0838413 6.1806402 0.17701103 47 8 1.6812926e+09
-10.432227 5.3435764 0.61246151 40 9 1.6812926e+09
-8.1094656 6.2047262 -0.53507942 39 6 1.6812926e+09
-10.445279 5.3548503 -0.20428041 31 7 1.6812926e+09
-8.1084709 6.2106919 -1.2479936 34 4 1.6812926e+09
-10.343088 5.3025255 -1.0118166 37 5 1.6812926e+09
-4.9983768 3.8318191 -1.2151752 18 2 1.6812926e+09
-6.737884 3.451642 -1.1949103 24 3 1.6812926e+09
-4.0677586 3.1224856 -1.3637345 16 0 1.6812926e+09
-5.1803946 2.6481879 -1.3330659 21 1 1.6812926e+09
-8.0389423 6.184155 2.3297768 48 14 1.6812926e+09
-10.392507 5.3096514 3.113414 42 15 1.6812926e+09
-8.0503683 6.1929641 1.599529 50 12 1.6812926e+09
-10.394026 5.3378339 2.2623923 41 13 1.6812926e+09
-8.0587101 6.2016301 0.88659179 46 10 1.6812926e+09
-10.401451 5.3622618 1.4305377 8 11 1.6812926e+09
-8.0463762 6.1966171 0.17666197 49 8 1.6812926e+09
-10.422384 5.3845387 0.61298484 6 9 1.6812926e+09
-8.0798492 6.2268982 -0.5345543 40 6 1.6812926e+09
-10.397653 5.3763647 -0.20371319 1 7 1.6812926e+09
-8.0729923 6.2283459 -1.2458639 33 4 1.6812926e+09
-10.293537 5.3225946 -1.0087723 38 5 1.6812926e+09
-4.9784732 3.8456106 -1.2137467 21 2 1.6812926e+09
-6.6615586 3.4434724 -1.1835563 22 3 1.6812926e+09
-4.0472841 3.1292763 -1.3605013 17 0 1.6812926e+09
-5.1776171 2.6695983 -1.3347503 18 1 1.6812926e+09
-7.9942012 6.1942692 2.3230383 46 14 1.6812926e+09
-10.391088 5.3547387 3.1185834 11 15 1.6812926e+09
-8.0130892 6.2089252 1.5964073 46 12 1.6812926e+09
-10.412383 5.3932567 2.2704945 2 13 1.6812926e+09
-8.0094595 6.2083573 0.88354135 48 10 1.6812926e+09
nan nan nan 0 11 1.6812926e+09
-8.0088987 6.2124076 0.17631292 46 8 1.6812926e+09
nan nan nan 0 9 1.6812926e+09
-8.0344009 6.2366905 -0.53297901 39 6 1.6812926e+09
nan nan nan 0 7 1.6812926e+09
-8.0276928 6.2382126 -1.242213 33 4 1.6812926e+09
-10.248392 5.3446851 -1.0061628 38 5 1.6812926e+09
-4.9766388 3.8720109 -1.2166036 17 2 1.6812926e+09
-6.6013145 3.441622 -1.174943 19 3 1.6812926e+09
-4.0382414 3.1448696 -1.361148 17 0 1.6812926e+09
-5.1985383 2.7033668 -1.3426118 16 1 1.6812926e+09
-7.9494872 6.2041464 2.3163002 50 14 1.6812926e+09
-10.410912 5.4110093 3.1302152 6 15 1.6812926e+09
-7.9738488 6.2231817 1.5928953 50 12 1.6812926e+09
-33.85593 17.674585 7.4100857 22 13 1.6812926e+09
-7.9779263 6.2286134 0.88245189 47 10 1.6812926e+09
-34.002373 17.811428 4.7020335 14 11 1.6812926e+09
-7.9714084 6.2280111 0.17596388 43 8 1.6812926e+09
-34.071724 17.893219 2.015065 1 9 1.6812926e+09
-7.9988174 6.2539306 -0.53206009 40 6 1.6812926e+09
nan nan nan 0 7 1.6812926e+09
-7.9941454 6.2570171 -1.2403876 34 4 1.6812926e+09
-10.196602 5.3630486 -1.002901 38 5 1.6812926e+09
-4.9599075 3.8854649 -1.2156513 18 2 1.6812926e+09
-6.5461383 3.4405463 -1.1671126 22 3 1.6812926e+09
-4.0158415 3.1500001 -1.3572682 17 0 1.6812926e+09
-5.1610117 2.7068098 -1.3353119 17 1 1.6812926e+09
-7.9135475 6.2184291 2.3118079 46 14 1.6812926e+09
-10.369375 5.4331837 3.123107 1 15 1.6812926e+09
-7.9298725 6.231277 1.5882126 46 12 1.6812926e+09
-33.986084 17.886171 7.4515491 1 13 1.6812926e+09
-7.9463487 6.2487249 0.8813625 44 10 1.6812926e+09
-34.04092 17.983316 4.7160282 25 11 1.6812926e+09
-7.9369617 6.2435908 0.17565845 46 8 1.6812926e+09
-34.113708 18.05983 2.0210838 1 9 1.6812926e+09
-7.9564586 6.2634315 -0.53061604 40 6 1.6812926e+09
-16.856356 8.9376822 -0.33242467 1 7 1.6812926e+09
-7.9538651 6.2681298 -1.2373451 32 4 1.6812926e+09
-10.145748 5.3793454 -0.99963909 38 5 1.6812926e+09
-4.9790616 3.9286077 -1.2237461 19 2 1.6812926e+09
-6.555912 3.4749255 -1.1710278 22 3 1.6812926e+09
-4.0029268 3.1625009 -1.3566216 17 0 1.6812926e+09
-5.1132255 2.7034447 -1.3252045 17 1 1.6812926e+09
-7.8746033 6.2324052 2.3067541 47 14 1.6812926e+09
-33.947788 17.926662 10.263021 1 15 1.6812926e+09
-7.9022641 6.2543206 1.5870419 47 12 1.6812926e+09
-34.081703 18.088667 7.486341 25 13 1.6812926e+09
-7.8962979 6.2518463 0.87809414 43 10 1.6812926e+09
-34.107162 18.170855 4.7339783 19 11 1.6812926e+09
-7.8974876 6.2572837 0.17526577 43 8 1.6812926e+09
-34.171597 18.243452 2.0282798 10 9 1.6812926e+09
-7.9188995 6.2787552 -0.52956587 40 6 1.6812926e+09
-16.893396 9.0329905 -0.33377725 1 7 1.6812926e+09
-7.9241629 6.2896838 -1.2361281 32 4 1.6812926e+09
-10.101803 5.403583 -0.99724716 37 5 1.6812926e+09
-4.9595556 3.9413815 -1.2223177 21 2 1.6812926e+09
-6.6504793 3.5547574 -1.190212 22 3 1.6812926e+09
-3.9899743 3.1749501 -1.3559749 17 0 1.6812926e+09
-5.0882301 2.7141538 -1.3212737 19 1 1.6812926e+09
-7.8413725 6.250742 2.303385 46 14 1.6812926e+09
-34.066208 18.141521 10.317949 1 15 1.6812926e+09
-7.8649392 6.2695503 1.5839201 47 12 1.6812926e+09
-34.161163 18.283939 7.5177956 24 13 1.6812926e+09
-7.8655438 6.2745318 0.87722254 44 10 1.6812926e+09
-34.229343 18.389603 4.7598391 19 11 1.6812926e+09
-7.8686423 6.2815089 0.17513488 44 8 1.6812926e+09
-34.293541 18.470362 2.0395319 1 9 1.6812926e+09
-7.8880315 6.3015032 -0.52904075 40 6 1.6812926e+09
-16.940979 9.134593 -0.33534798 3 7 1.6812926e+09
-7.881681 6.303184 -1.2330858 33 4 1.6812926e+09
-10.045608 5.4187264 -0.99355036 37 5 1.6812926e+09
-4.9361892 3.9509985 -1.2199368 18 2 1.6812926e+09
-6.6054168 3.5603969 -1.1843393 19 3 1.6812926e+09
-3.9732153 3.1843252 -1.354035 17 0 1.6812926e+09
-5.098042 2.742269 -1.3263274 18 1 1.6812926e+09
-7.8070154 6.2702851 2.3000159 46 14 1.6812926e+09
-34.152676 18.348534 10.364476 1 15 1.6812926e+09
-7.8207331 6.281322 1.5796276 46 12 1.6812926e+09
-34.234295 18.484795 7.5487747 1 13 1.6812926e+09
-7.8280649 6.2894683 0.87547946 44 10 1.6812926e+09
-34.287128 18.57515 4.7768764 22 11 1.6812926e+09
-7.8291368 6.294837 0.17474221 46 8 1.6812926e+09
-34.367088 18.665007 2.047775 1 9 1.6812926e+09
-7.8523741 6.3180418 -0.52812183 40 6 1.6812926e+09
-16.966093 9.2247038 -0.33648238 3 7 1.6812926e+09
-7.8538342 6.3259873 -1.2321731 30 4 1.6812926e+09
-10.009125 5.4442463 -0.9918108 38 5 1.6812926e+09
-4.9013548 3.9512558 -1.214699 18 2 1.6812926e+09
-6.6754141 3.6281886 -1.199217 21 3 1.6812926e+09
-3.9677117 3.2027278 -1.3559749 16 0 1.6812926e+09
-5.0798697 2.755409 -1.3240814 19 1 1.6812926e+09
-7.7767096 6.2884793 2.2972083 51 14 1.6812926e+09
-34.206322 18.523773 10.399371 22 15 1.6812926e+09
-7.7921805 6.3010097 1.5780667 52 12 1.6812926e+09
-34.291374 18.662729 7.5749879 1 13 1.6812926e+09
-7.7925124 6.3057866 0.87395424 47 10 1.6812926e+09
-34.376709 18.779165 4.7984776 19 11 1.6812926e+09
-7.7985072 6.3129001 0.17452405 49 8 1.6812926e+09
-34.447357 18.856775 2.0562797 1 9 1.6812926e+09
-7.8139224 6.3298998 -0.52694035 40 6 1.6812926e+09
-17.001745 9.321104 -0.33783495 4 7 1.6812926e+09
-7.8039074 6.3285475 -1.2276094 32 4 1.6812926e+09
-9.9495125 5.4546762 -0.98767912 39 5 1.6812926e+09
-4.874198 3.9575081 -1.2113658 17 2 1.6812926e+09
-6.5912304 3.6123512 -1.1862969 18 3 1.6812926e+09
-3.9508879 3.2119858 -1.354035 18 0 1.6812926e+09
-5.1049199 2.7909095 -1.3330659 18 1 1.6812926e+09
-7.7320476 6.2971225 2.2904699 44 14 1.6812926e+09
-34.281361 18.719437 10.44202 25 15 1.6812926e+09
-7.7452502 6.3078942 1.5729938 46 12 1.6812926e+09
-34.395996 18.875568 7.6126385 1 13 1.6812926e+09
-7.7580457 6.3205791 0.87242901 46 10 1.6812926e+09
-34.471798 18.987621 4.820991 1 11 1.6812926e+09
-7.7531781 6.321125 0.17400047 47 8 1.6812926e+09
-34.536522 19.062542 2.0655692 34 9 1.6812926e+09
-7.772438 6.3413515 -0.52562761 40 6 1.6812926e+09
-34.5905 19.115955 -0.68923914 1 7 1.6812926e+09
-7.7760043 6.3510394 -1.2266967 32 4 1.6812926e+09
-9.9098349 5.480267 -0.98572201 38 5 1.6812926e+09
-4.8622537 3.9760523 -1.2118419 18 2 1.6812926e+09
-6.561285 3.6257932 -1.1831647 19 3 1.6812926e+09
-3.9321806 3.2196357 -1.3514485 16 0 1.6812926e+09
-5.0861197 2.8049023 -1.3308196 17 1 1.6812926e+09
-7.6987185 6.3148012 2.2871008 46 14 1.6812926e+09
-34.36179 18.919342 10.486609 22 15 1.6812926e+09
-7.7060037 6.3207941 1.5694817 46 12 1.6812926e+09
-34.475929 19.076298 7.6450472 1 13 1.6812926e+09
-7.717504 6.3347473 0.87046802 48 10 1.6812926e+09
-34.548492 19.187332 4.8410711 33 11 1.6812926e+09
-7.7203016 6.3415647 0.17378232 51 8 1.6812926e+09
-34.612579 19.270346 2.0743356 1 9 1.6812926e+09
-7.7356448 6.3586969 -0.52470863 40 6 1.6812926e+09
-34.663319 19.314434 -0.6920315 17 7 1.6812926e+09
-7.7392635 6.3684583 -1.2245671 30 4 1.6812926e+09
-9.8601847 5.4978576 -0.98267764 39 5 1.6812926e+09
-4.8407693 3.9867575 -1.2099373 18 2 1.6812926e+09
-6.5529046 3.6510751 -1.1839478 18 3 1.6812926e+09
-3.9246433 3.2364161 -1.3527418 17 0 1.6812926e+09
-5.0464768 2.8060887 -1.3229584 19 1 1.6812926e+09
-7.6529913 6.3243504 2.2803624 46 14 1.6812926e+09
-34.402012 19.106115 10.520212 14 15 1.6812926e+09
-7.6561403 6.3269691 1.5640186 46 12 1.6812926e+09
-34.54937 19.282648 7.6769786 1 13 1.6812926e+09
-7.6742325 6.3441892 0.8680712 44 10 1.6812926e+09
-34.629486 19.398703 4.8623676 33 11 1.6812926e+09
-7.6711588 6.3461642 0.17317149 46 8 1.6812926e+09
-34.695332 19.475351 2.0833635 31 9 1.6812926e+09
-7.69802 6.3729215 -0.52365845 40 6 1.6812926e+09
-21.299084 11.967503 -0.42583871 14 7 1.6812926e+09
-7.7055249 6.385932 -1.2227416 29 4 1.6812926e+09
-9.8148766 5.5176077 -0.98006821 39 5 1.6812926e+09
-4.811018 3.9919317 -1.206128 18 2 1.6812926e+09
-6.5933104 3.7052772 -1.1937357 19 3 1.6812926e+09
-3.9003212 3.239291 -1.3482155 17 0 1.6812926e+09
-4.9941325 2.799895 -1.3117278 17 1 1.6812926e+09
-7.6308689 6.3510261 2.2803624 49 14 1.6812926e+09
-9.9450006 5.5725594 3.041039 2 15 1.6812926e+09
-7.6321111 6.3520761 1.5636284 48 12 1.6812926e+09
-34.635857 19.489765 7.7112937 1 13 1.6812926e+09
-7.6443863 6.3645625 0.86719966 48 10 1.6812926e+09
-34.723618 19.610966 4.8851857 32 11 1.6812926e+09
-7.6412792 6.3665009 0.17299697 55 8 1.6812926e+09
-34.779236 19.6824 2.0925221 33 9 1.6812926e+09
-7.6584721 6.3853621 -0.52247697 40 6 1.6812926e+09
-34.847378 19.737005 -0.69844526 7 7 1.6812926e+09
-7.6679482 6.4000673 -1.2203077 29 4 1.6812926e+09
-9.7608814 5.5322003 -0.97658896 38 5 1.6812926e+09
-4.8234129 4.0307407 -1.2127943 17 2 1.6812926e+09
-6.5502501 3.7112474 -1.1882545 22 3 1.6812926e+09
-3.8871388 3.2513361 -1.3475689 15 0 1.6812926e+09
-4.9949379 2.8232961 -1.3145354 17 1 1.6812926e+09
-7.5825186 6.35571 2.272501 46 14 1.6812926e+09
-9.9170761 5.6024919 3.0384543 2 15 1.6812926e+09
-7.5928621 6.3643985 1.5601164 48 12 1.6812926e+09
-34.717045 19.695297 7.7446551 1 13 1.6812926e+09
-7.6011338 6.3736019 0.86480284 46 10 1.6812926e+09
-34.802895 19.808229 4.9055696 30 11 1.6812926e+09
-7.6075225 6.3834929 0.17273518 47 8 1.6812926e+09
-34.875134 19.89769 2.1024661 31 9 1.6812926e+09
-7.6284904 6.405633 -0.52195185 40 6 1.6812926e+09
-21.073912 12.035356 -0.42300266 3 7 1.6812926e+09
-7.636065 6.4188089 -1.2187865 29 4 1.6812926e+09
-9.7155552 5.5514212 -0.97397941 39 5 1.6812926e+09
-4.8306737 4.0640988 -1.2180321 17 2 1.6812926e+09
-6.4499621 3.682806 -1.1722022 23 3 1.6812926e+09
-3.8831511 3.2711108 -1.3501554 14 0 1.6812926e+09
-4.9998751 2.8491454 -1.3184661 17 1 1.6812926e+09
-7.5539551 6.3745341 2.2702549 46 14 1.6812926e+09
-9.8501596 5.6078854 3.0235913 2 15 1.6812926e+09
-7.5603933 6.3799849 1.557775 48 12 1.6812926e+09
-34.794292 19.891905 7.776587 1 13 1.6812926e+09
-7.5655222 6.3888464 0.86327761 46 10 1.6812926e+09
-34.899281 20.024666 4.9289966 32 11 1.6812926e+09
-7.5710387 6.3957787 0.17238612 49 8 1.6812926e+09
-34.943161 20.090366 2.1105783 33 9 1.6812926e+09
-7.5938621 6.41961 -0.52103293 42 6 1.6812926e+09
nan nan nan 0 7 1.6812926e+09
-7.592011 6.4248571 -1.2151356 27 4 1.6812926e+09
-9.6711864 5.5687065 -0.97136998 38 5 1.6812926e+09
-4.8239465 4.0872846 -1.2199368 17 2 1.6812926e+09
-6.3492975 3.6548488 -1.1561501 22 3 1.6812926e+09
-3.8845959 3.2955859 -1.3546816 15 0 1.6812926e+09
-4.9840584 2.8620756 -1.3167815 16 1 1.6812926e+09
-7.5186658 6.3898177 2.2663243 46 14 1.6812926e+09
-34.761738 19.937815 10.713427 31 15 1.6812926e+09
-7.5230265 6.3935409 1.5546534 48 12 1.6812926e+09
-34.882004 20.103907 7.8118548 1 13 1.6812926e+09
-7.536706 6.4074454 0.86240608 46 10 1.6812926e+09
-34.979534 20.233318 4.9502931 31 11 1.6812926e+09
-7.5410523 6.4156866 0.1722116 52 8 1.6812926e+09
-35.028347 20.30234 2.1199987 32 9 1.6812926e+09
-7.5581021 6.4347472 -0.520114 41 6 1.6812926e+09
nan nan nan 0 7 1.6812926e+09
-7.558208 6.4416595 -1.2133101 27 4 1.6812926e+09
-9.6205511 5.5866189 -0.96832561 38 5 1.6812926e+09
-4.8283148 4.1200337 -1.2246984 18 2 1.6812926e+09
-6.2189989 3.6089036 -1.1346166 18 3 1.6812926e+09
-3.8730683 3.3091254 -1.3546816 14 0 1.6812926e+09
-5.0009537 2.8961728 -1.3240814 18 1 1.6812926e+09
-7.4889131 6.4096866 2.2640781 47 14 1.6812926e+09
-34.86338 20.158142 10.766416 39 15 1.6812926e+09
-7.504415 6.4229746 1.5554339 50 12 1.6812926e+09
-34.960159 20.311829 7.8452163 1 13 1.6812926e+09
-7.4961491 6.4204416 0.86044502 44 10 1.6812926e+09
-35.05447 20.440275 4.9709816 1 11 1.6812926e+09
-7.5042038 6.4318943 0.17190619 49 8 1.6812926e+09
-35.111053 20.522537 2.12955 31 9 1.6812926e+09
-7.517415 6.4477754 -0.51893252 42 6 1.6812926e+09
nan nan nan 0 7 1.6812926e+09
-7.5176058 6.4547668 -1.210572 26 4 1.6812926e+09
-9.5773439 5.6063366 -0.96593362 38 5 1.6812926e+09
-4.8232079 4.1448631 -1.2270793 18 2 1.6812926e+09
-6.2639294 3.6642153 -1.1451876 21 3 1.6812926e+09
-3.8688138 3.3289278 -1.3572682 17 0 1.6812926e+09
-4.997128 2.9172912 -1.325766 18 1 1.6812926e+09
-7.4413881 6.4164057 2.2567782 46 14 1.6812926e+09
-34.931137 20.368492 10.810357 32 15 1.6812926e+09
-7.4509053 6.4246306 1.5491903 49 12 1.6812926e+09
-35.027363 20.522934 7.8771482 1 13 1.6812926e+09
-7.4604931 6.4351802 0.8589198 47 10 1.6812926e+09
-35.132664 20.650518 4.9922786 29 11 1.6812926e+09
-7.470355 6.4482474 0.1716444 49 8 1.6812926e+09
-35.161816 20.717199 2.137008 1 9 1.6812926e+09
-7.4854174 6.4658151 -0.51827615 42 6 1.6812926e+09
-12.484408 7.3650498 -0.25240541 7 7 1.6812926e+09
-7.4837689 6.4712286 -1.2087466 25 4 1.6812926e+09
-9.5362616 5.6270857 -0.96375912 38 5 1.6812926e+09
-4.8235531 4.1745267 -1.2308886 19 2 1.6812926e+09
-6.4021683 3.7750084 -1.1729853 22 3 1.6812926e+09
-3.855346 3.3408301 -1.3566216 17 0 1.6812926e+09
-4.9848137 2.9334829 -1.3252045 21 1 1.6812926e+09
-7.4071941 6.4298663 2.2528474 51 14 1.6812926e+09
-35.009163 20.569838 10.855591 33 15 1.6812926e+09
-7.4276948 6.4476843 1.5487999 55 12 1.6812926e+09
-35.096489 20.72006 7.9081264 1 13 1.6812926e+09
-7.4248261 6.4497476 0.85739458 51 10 1.6812926e+09
-9.5046682 5.6353393 1.3505225 9 11 1.6812926e+09
-7.4206338 6.4483857 0.17098995 44 8 1.6812926e+09
-9.4824686 5.6333556 0.5762189 22 9 1.6812926e+09
-7.4450984 6.474216 -0.51696336 42 6 1.6812926e+09
-9.4974976 5.6489978 -0.19228187 39 7 1.6812926e+09
-7.4491687 6.4846029 -1.2066169 24 4 1.6812926e+09
-9.4875708 5.640872 -0.96071476 39 5 1.6812926e+09
-4.8182006 4.1994038 -1.2332695 16 2 1.6812926e+09
-6.2105927 3.691473 -1.1400979 22 3 1.6812926e+09
-3.8400226 3.3510907 -1.3553283 17 0 1.6812926e+09
-4.9687696 2.9462745 -1.3235198 22 1 1.6812926e+09
-7.3663669 6.4396462 2.2472324 48 14 1.6812926e+09
-9.5596046 5.6657395 2.9641407 4 15 1.6812926e+09
-7.3828373 6.4540658 1.5441173 46 12 1.6812926e+09
-9.4488411 5.6268535 2.1289461 25 13 1.6812926e+09
-7.3846521 6.4579358 0.85521573 46 10 1.6812926e+09
-9.457242 5.6519456 1.3465674 52 11 1.6812926e+09
-7.3849139 6.4627242 0.17068452 49 8 1.6812926e+09
-9.4327507 5.6484766 0.57438707 52 9 1.6812926e+09
-7.4093084 6.4886489 -0.51604444 41 6 1.6812926e+09
-9.4100847 5.6393719 -0.19088569 44 7 1.6812926e+09
-7.4171605 6.5023856 -1.2050958 24 4 1.6812926e+09
-9.4507284 5.6637201 -0.95897508 39 5 1.6812926e+09
-4.794292 4.2080998 -1.2308886 16 2 1.6812926e+09
-6.1934319 3.7105942 -1.1393148 21 3 1.6812926e+09
-3.836144 3.3701842 -1.3579149 16 0 1.6812926e+09
-4.960547 2.964849 -1.3240814 22 1 1.6812926e+09
-7.3292179 6.4524398 2.2427399 50 14 1.6812926e+09
-9.4340076 5.6359525 2.9311843 43 15 1.6812926e+09
-7.3398781 6.4618449 1.5398248 55 12 1.6812926e+09
-9.4080954 5.6471806 2.1241801 52 13 1.6812926e+09
-7.3527222 6.4754424 0.85412633 48 10 1.6812926e+09
-9.3566637 5.636302 1.3350062 44 11 1.6812926e+09
-7.3454351 6.4735866 0.17029184 44 8 1.6812926e+09
-9.3573914 5.6478505 0.57098526 44 9 1.6812926e+09
-7.3753819 6.5045638 -0.51525682 40 6 1.6812926e+09
-9.3625221 5.6553955 -0.19031848 44 7 1.6812926e+09
-7.3776774 6.513453 -1.2023575 24 4 1.6812926e+09
-9.4031801 5.6799464 -0.95614815 41 5 1.6812926e+09
-4.8163419 4.2573271 -1.2404119 18 2 1.6812926e+09
-6.1783271 3.7309158 -1.1389233 21 3 1.6812926e+09
-3.8261647 3.3851552 -1.3585615 17 0 1.6812926e+09
-4.9480796 2.980891 -1.3235198 19 1 1.6812926e+09
-7.3055196 6.4792595 2.2427399 46 14 1.6812926e+09
-9.361558 5.6393604 2.9150293 44 15 1.6812926e+09
-7.3087568 6.4821482 1.5382638 49 12 1.6812926e+09
-9.3411322 5.6536875 2.1136949 44 13 1.6812926e+09
-7.3158994 6.4907761 0.85260099 48 10 1.6812926e+09
-9.3093519 5.6521988 1.3310512 42 11 1.6812926e+09
-7.3085771 6.4888463 0.16998643 48 8 1.6812926e+09
-9.3195601 5.6717324 0.56993854 44 9 1.6812926e+09
-7.3421617 6.5232596 -0.51460046 41 6 1.6812926e+09
-9.3203764 5.6766801 -0.18988217 46 7 1.6812926e+09
-7.3426323 6.5305533 -1.2005321 24 4 1.6812926e+09
-9.3588953 5.7001324 -0.95375621 40 5 1.6812926e+09
-4.8087826 4.280643 -1.2423166 17 2 1.6812926e+09
-6.1758161 3.7588713 -1.1408809 21 3 1.6812926e+09
-3.8155341 3.4007635 -1.3592081 17 0 1.6812926e+09
-4.9433703 3.0027959 -1.3252045 18 1 1.6812926e+09
-7.2567396 6.4791083 2.2343173 46 14 1.6812926e+09
-9.309763 5.6503386 2.90469 44 15 1.6812926e+09
-7.2688036 6.4898996 1.5343617 49 12 1.6812926e+09
-9.2971821 5.669311 2.107976 43 13 1.6812926e+09
-7.2727718 6.4980168 0.85020429 48 10 1.6812926e+09
-9.2937984 5.6872482 1.3316597 46 11 1.6812926e+09
-7.2814288 6.5080481 0.16985554 46 8 1.6812926e+09
-9.2815418 5.6908693 0.56876093 46 9 1.6812926e+09
-7.3056049 6.5342536 -0.51355022 41 6 1.6812926e+09
-9.2749338 5.6934972 -0.18935859 44 7 1.6812926e+09
-7.3098445 6.5449328 -1.1987066 26 4 1.6812926e+09
-9.310215 5.7129126 -0.95071179 40 5 1.6812926e+09
-4.740828 4.2498798 -1.2285078 18 2 1.6812926e+09
-6.2110848 3.8100703 -1.1498858 22 3 1.6812926e+09
-3.8018432 3.4124477 -1.3585615 17 0 1.6812926e+09
-4.9250698 3.0140922 -1.3229584 17 1 1.6812926e+09
-7.2503796 6.5190611 2.2393708 51 14 1.6812926e+09
-9.2693758 5.6702075 2.8982277 44 15 1.6812926e+09
-7.2552853 6.5234895 1.5363128 50 12 1.6812926e+09
-9.245965 5.6824675 2.100827 44 13 1.6812926e+09
-7.2715492 6.5404224 0.85260099 51 10 1.6812926e+09
-9.2400885 5.6988282 1.3267919 44 11 1.6812926e+09
-7.2735276 6.5468063 0.17020458 56 8 1.6812926e+09
-9.2425003 5.7114301 0.56758338 46 9 1.6812926e+09
-7.2660594 6.5446749 -0.51236874 41 6 1.6812926e+09
-9.2379942 5.7153249 -0.18900955 46 7 1.6812926e+09
-7.261158 6.5471411 -1.1944473 24 4 1.6812926e+09
-9.2659111 5.732594 -0.94831985 39 5 1.6812926e+09
-4.7478194 4.2861433 -1.2342218 17 2 1.6812926e+09
-6.2313628 3.8524816 -1.1561501 21 3 1.6812926e+09
-3.7845354 3.4208379 -1.3566216 17 0 1.6812926e+09
-4.918138 3.0346787 -1.3240814 18 1 1.6812926e+09
-7.2059135 6.5247049 2.2326324 46 14 1.6812926e+09
-9.2248516 5.6873317 2.8904734 44 15 1.6812926e+09
-7.212338 6.53054 1.5320203 50 12 1.6812926e+09
-9.2239866 5.7134166 2.1003504 44 13 1.6812926e+09
-7.2106233 6.5335784 0.8482433 46 10 1.6812926e+09
-9.2053833 5.7218838 1.3246622 47 11 1.6812926e+09
-7.2124548 6.5398331 0.16933195 50 8 1.6812926e+09
-9.2024298 5.7333937 0.56640589 51 9 1.6812926e+09
-7.23278 6.5628724 -0.51171237 41 6 1.6812926e+09
-9.2010145 5.7369633 -0.1886605 50 7 1.6812926e+09
-7.2371125 6.5737104 -1.1944473 25 4 1.6812926e+09
-9.2183628 5.7477841 -0.94549292 39 5 1.6812926e+09
-4.6493149 4.2267251 -1.2123182 19 2 1.6812926e+09
-6.2220712 3.8768187 -1.1569331 22 3 1.6812926e+09
-3.7707858 3.4324009 -1.3559749 18 0 1.6812926e+09
-4.8971658 3.0454035 -1.3212737 18 1 1.6812926e+09
-7.1549578 6.5264406 2.2242098 48 14 1.6812926e+09
-9.1916342 5.7134595 2.886596 44 15 1.6812926e+09
-7.1701126 6.5402865 1.5281181 51 12 1.6812926e+09
-9.1759157 5.730298 2.0941546 49 13 1.6812926e+09
-7.1693788 6.5419178 0.84606433 50 10 1.6812926e+09
-9.1570082 5.7384672 1.320707 55 11 1.6812926e+09
-7.1729722 6.5497966 0.16893928 52 8 1.6812926e+09
-9.1548672 5.7482343 0.56470495 46 9 1.6812926e+09
-7.1748157 6.556076 -0.50921816 33 6 1.6812926e+09
-9.1534119 5.7517686 -0.1880933 44 7 1.6812926e+09
-7.0786529 6.4749722 -1.1719335 33 4 1.6812926e+09
-9.1813679 5.7693334 -0.94375324 39 5 1.6812926e+09
-4.6808381 4.2868471 -1.2246984 18 2 1.6812926e+09
-6.2078195 3.8995979 -1.1569331 21 3 1.6812926e+09
-3.7392058 3.4275861 -1.3488621 16 0 1.6812926e+09
-4.8885708 3.063771 -1.3218353 18 1 1.6812926e+09
-7.0621743 6.4870925 2.2023101 39 14 1.6812926e+09
-9.147069 5.730135 2.8788416 52 15 1.6812926e+09
-7.067235 6.4917588 1.5109482 39 12 1.6812926e+09
-9.1350813 5.7492304 2.0893888 44 13 1.6812926e+09
-7.0694919 6.4961166 0.83691305 39 10 1.6812926e+09
-9.1180334 5.7584786 1.3179688 44 11 1.6812926e+09
-7.0580821 6.4901829 0.16675773 39 8 1.6812926e+09
-9.1115332 5.7654815 0.56326568 44 9 1.6812926e+09
-7.0416775 6.4796314 -0.50134158 37 6 1.6812926e+09
-9.112154 5.7703204 -0.18765698 44 7 1.6812926e+09
-7.0268111 6.4727378 -1.1670657 35 4 1.6812926e+09
-9.1401272 5.7880316 -0.94157875 40 5 1.6812926e+09
-4.6351833 4.2748656 -1.2166036 18 2 1.6812926e+09
-6.1879082 3.917285 -1.1557585 19 3 1.6812926e+09
-3.723671 3.4373403 -1.3475689 16 0 1.6812926e+09
-4.8778467 3.080817 -1.3218353 16 1 1.6812926e+09
-6.9947858 6.4703393 2.1882718 37 14 1.6812926e+09
-9.1045418 5.7478576 2.8717334 44 15 1.6812926e+09
-7.0082836 6.4828463 1.5031438 38 12 1.6812926e+09
-9.0900812 5.7653193 2.0836694 44 13 1.6812926e+09
-7.0083919 6.4852252 0.83233738 38 10 1.6812926e+09
-9.0758514 5.7740407 1.3146222 46 11 1.6812926e+09
-7.0060444 6.4876022 0.16605963 38 8 1.6812926e+09
-9.0639791 5.7798128 0.5615648 42 9 1.6812926e+09
-7.0043693 6.4905944 -0.50029141 38 6 1.6812926e+09
-9.0624495 5.7832799 -0.18704616 44 7 1.6812926e+09
-6.9932609 6.4870987 -1.1652402 38 4 1.6812926e+09
-9.0967665 5.8051739 -0.93918669 40 5 1.6812926e+09
-4.6371655 4.3052464 -1.2208891 17 2 1.6812926e+09
-6.1873803 3.9457412 -1.1581076 21 3 1.6812926e+09
-3.6957359 3.435514 -1.3417492 17 0 1.6812926e+09
-4.8732314 3.1017444 -1.3235198 17 1 1.6812926e+09
-6.9661613 6.4868579 2.1860259 39 14 1.6812926e+09
-9.0650463 5.7650666 2.8652713 44 15 1.6812926e+09
-6.9777117 6.4976344 1.5011926 39 12 1.6812926e+09
-9.0440207 5.7782664 2.0774739 42 13 1.6812926e+09
-6.976603 6.5011582 0.83124787 38 10 1.6812926e+09
-9.0305672 5.7896261 1.3109713 46 11 1.6812926e+09
-6.9808359 6.50739 0.16597238 38 8 1.6812926e+09
-9.030055 5.8003993 0.56064892 44 9 1.6812926e+09
-6.9736805 6.5052695 -0.49963501 38 6 1.6812926e+09
-9.0190735 5.8000159 -0.1865662 47 7 1.6812926e+09
-6.9735231 6.5119476 -1.1655444 38 4 1.6812926e+09
-9.0648928 5.8272328 -0.93788195 32 5 1.6812926e+09
-4.5557942 4.2593722 -1.2032709 17 2 1.6812926e+09
-6.20474 3.9873188 -1.1639804 25 3 1.6812926e+09
-3.6766715 3.4417894 -1.3391627 17 0 1.6812926e+09
-4.867023 3.1205137 -1.3246429 18 1 1.6812926e+09
-6.9381456 6.506134 2.1843412 37 14 1.6812926e+09
-9.0163937 5.7784438 2.8562245 44 15 1.6812926e+09
-6.9531879 6.5202618 1.5008024 37 12 1.6812926e+09
-9.0052185 5.7978525 2.0731845 44 13 1.6812926e+09
-6.9531894 6.5225539 0.83103001 35 10 1.6812926e+09
-8.9894533 5.8076572 1.3079288 42 11 1.6812926e+09
-6.9526124 6.5265851 0.16584148 29 8 1.6812926e+09
-8.9783077 5.8115492 0.55868632 44 9 1.6812926e+09
-6.9818592 6.5586371 -0.5018667 22 6 1.6812926e+09
-8.981987 5.8205962 -0.18621717 44 7 1.6812926e+09
-6.9868975 6.5702543 -1.1716292 21 4 1.6812926e+09
-6.1709599 4.0006833 -0.6390993 8 5 1.6812926e+09
-4.5909185 4.3223686 -1.2166036 18 2 1.6812926e+09
-6.2405448 4.041132 -1.1733768 22 3 1.6812926e+09
-3.6470683 3.438031 -1.3326963 17 0 1.6812926e+09
-4.849412 3.1343689 -1.3229584 18 1 1.6812926e+09
-6.9791451 6.590538 2.2045562 38 14 1.6812926e+09
-8.9738464 5.7954788 2.8491163 44 15 1.6812926e+09
-6.9788527 6.5902786 1.5113385 39 12 1.6812926e+09
-8.9705095 5.8199067 2.0698485 44 13 1.6812926e+09
-6.9962006 6.6112971 0.8390919 40 10 1.6812926e+09
-8.9420853 5.8214126 1.3039738 46 11 1.6812926e+09
-7.0030942 6.6224523 0.16763034 42 8 1.6812926e+09
-8.9360323 5.8307834 0.55737787 46 9 1.6812926e+09
-7.0121641 6.6356711 -0.50580496 41 6 1.6812926e+09
-8.9427738 5.8396211 -0.18582448 46 7 1.6812926e+09
-7.0150037 6.6453171 -1.1804522 31 4 1.6812926e+09
-6.1632156 4.0262818 -0.63975167 15 5 1.6812926e+09
-4.5793638 4.3417459 -1.217556 17 2 1.6812926e+09
-6.2346764 4.068284 -1.174943 22 3 1.6812926e+09
-3.6245401 3.4407616 -1.3288167 16 0 1.6812926e+09
-4.8527379 3.1605728 -1.326889 18 1 1.6812926e+09
-6.9690609 6.6295085 2.2090485 49 14 1.6812926e+09
-8.9343233 5.8164802 2.8433003 44 15 1.6812926e+09
-6.9796953 6.6396446 1.5168016 54 12 1.6812926e+09
-8.922411 5.8352952 2.0636528 46 13 1.6812926e+09
-6.9965301 6.6580009 0.84192449 57 10 1.6812926e+09
-8.9051056 5.8417087 1.3015398 52 11 1.6812926e+09
-6.9944139 6.6606498 0.1679794 59 8 1.6812926e+09
-8.9093657 5.8578286 0.55698538 50 9 1.6812926e+09
-6.9871521 6.6583858 -0.50567371 41 6 1.6812926e+09
-8.9056253 5.859817 -0.18547544 46 7 1.6812926e+09
-6.9863782 6.6646242 -1.1795396 34 4 1.6812926e+09
-9.0002594 5.9220424 -0.93766451 24 5 1.6812926e+09
-4.5535326 4.3475327 -1.214699 17 2 1.6812926e+09
-6.1502619 4.0439434 -1.1616313 24 3 1.6812926e+09
-3.6177428 3.4584005 -1.3307565 18 0 1.6812926e+09
-4.8131475 3.158803 -1.3190277 19 1 1.6812926e+09
-6.9364829 6.6424713 2.2056792 51 14 1.6812926e+09
-8.9028654 5.8381348 2.8394232 55 15 1.6812926e+09
-6.9344578 6.6405473 1.5117286 52 12 1.6812926e+09
-8.8825111 5.8513598 2.0588868 51 13 1.6812926e+09
-6.9283009 6.6392965 0.83647722 46 10 1.6812926e+09
-8.8598137 5.856349 1.297889 46 11 1.6812926e+09
-6.934401 6.6474762 0.16706316 54 8 1.6812926e+09
-8.8649054 5.87081 0.55541533 46 9 1.6812926e+09
-6.9560266 6.6728759 -0.50501728 41 6 1.6812926e+09
-8.853857 5.8701625 -0.18482098 46 7 1.6812926e+09
-6.9535022 6.6774402 -1.177714 34 4 1.6812926e+09
-8.9182749 5.9106064 -0.9311409 26 5 1.6812926e+09
-4.5454035 4.3702068 -1.2166036 18 2 1.6812926e+09
-6.1464047 4.0721993 -1.1635889 19 3 1.6812926e+09
-3.6126056 3.4777095 -1.333343 17 0 1.6812926e+09
-4.8128119 3.1814551 -1.3218353 18 1 1.6812926e+09
-6.8764348 6.631125 2.1938872 46 14 1.6812926e+09
-8.8481674 5.8465576 2.8284378 50 15 1.6812926e+09
-6.891686 6.645854 1.5074362 51 12 1.6812926e+09
-8.8354425 5.8646975 2.052691 46 13 1.6812926e+09
-6.8954935 6.6518588 0.83516985 50 10 1.6812926e+09
-8.8186569 5.8734937 1.2948465 49 11 1.6812926e+09
-6.8949723 6.656014 0.16667047 51 8 1.6812926e+09
-8.8235855 5.8878698 0.55410689 46 9 1.6812926e+09
-6.9165344 6.6815028 -0.5038358 40 6 1.6812926e+09
-8.8187599 5.8913193 -0.18451557 46 7 1.6812926e+09
-6.9158831 6.6878695 -1.1752801 34 4 1.6812926e+09
-5.9922805 4.0048809 -0.62626946 10 5 1.6812926e+09
-4.5054431 4.3621402 -1.2099373 18 2 1.6812926e+09
-6.1609144 4.1128044 -1.1690701 23 3 1.6812926e+09
-3.5813773 3.4718025 -1.3262302 16 0 1.6812926e+09
-4.7788072 3.1842327 -1.3156585 16 1 1.6812926e+09
-6.8480048 6.6499953 2.1922026 52 14 1.6812926e+09
-8.8096085 5.8653698 2.8226218 46 15 1.6812926e+09
-6.8613615 6.6629877 1.5058753 48 12 1.6812926e+09
-8.7965527 5.8832326 2.0484016 44 13 1.6812926e+09
-6.863924 6.6701441 0.83429837 46 10 1.6812926e+09
-8.7713079 5.8862777 1.2908914 43 11 1.6812926e+09
-6.8633642 6.6742687 0.16649595 50 8 1.6812926e+09
-8.7729349 5.9006758 0.55227518 46 9 1.6812926e+09
-6.8758993 6.6911354 -0.50265437 40 6 1.6812926e+09
-8.7773981 5.9081173 -0.18407924 44 7 1.6812926e+09
-6.8771076 6.6993189 -1.1728462 34 4 1.6812926e+09
-8.8178854 5.935358 -0.92505223 34 5 1.6812926e+09
-4.4849181 4.3726993 -1.2085088 19 2 1.6812926e+09
-6.181365 4.1576905 -1.1757259 21 3 1.6812926e+09
-3.5623267 3.4775326 -1.3236437 16 0 1.6812926e+09
-4.7292132 3.1751251 -1.3049895 17 1 1.6812926e+09
-6.8079147 6.6597152 2.1871488 47 14 1.6812926e+09
-8.7800283 5.8922405 2.8200371 46 15 1.6812926e+09
-6.8227744 6.6742744 1.5027535 51 12 1.6812926e+09
-8.7484684 5.8976121 2.0422058 44 13 1.6812926e+09
-6.821022 6.6748986 0.83190161 49 10 1.6812926e+09
-8.7332268 5.9072704 1.2884575 44 11 1.6812926e+09
-6.8275251 6.6859407 0.16619053 50 8 1.6812926e+09
-8.7502174 5.9298644 0.55214435 46 9 1.6812926e+09
-6.8435864 6.706357 -0.50199795 39 6 1.6812926e+09
-8.7380972 5.9261012 -0.18368657 43 7 1.6812926e+09
-6.8501382 6.7198071 -1.1722378 34 4 1.6812926e+09
-8.7558765 5.9381618 -0.92070311 40 5 1.6812926e+09
-4.4863658 4.4063096 -1.2132705 18 2 1.6812926e+09
-6.1681299 4.1817031 -1.1761174 22 3 1.6812926e+09
-3.562217 3.5018008 -1.3281701 17 0 1.6812926e+09
-4.7080064 3.1847973 -1.3021817 18 1 1.6812926e+09
-6.7794209 6.678309 2.1854641 56 14 1.6812926e+09
-8.7233849 5.8985181 2.8084054 46 15 1.6812926e+09
-6.797677 6.6963162 1.5023633 57 12 1.6812926e+09
-8.7034607 5.9115782 2.0364869 46 13 1.6812926e+09
-6.7941341 6.6951704 0.83146578 47 10 1.6812926e+09
-8.7022982 5.9307365 1.2869363 44 11 1.6812926e+09
-6.7934685 6.6992002 0.16592874 49 8 1.6812926e+09
-8.7026539 5.9420824 0.55044341 44 9 1.6812926e+09
-6.8005919 6.7109122 -0.50055391 39 6 1.6812926e+09
-8.6967134 5.9424739 -0.18325026 44 7 1.6812926e+09
-6.8213453 6.7384453 -1.1713251 34 4 1.6812926e+09
-8.7145243 5.954648 -0.9185285 40 5 1.6812926e+09
-4.4918914 4.4426589 -1.2189845 18 2 1.6812926e+09
-6.1106606 4.1739883 -1.1678956 21 3 1.6812926e+09
-3.5636969 3.5278103 -1.333343 17 0 1.6812926e+09
-4.6747055 3.1861379 -1.296005 17 1 1.6812926e+09
-6.7474217 6.6933532 2.1826565 50 14 1.6812926e+09
-8.6887674 5.9194207 2.8038819 42 15 1.6812926e+09
-6.7637434 6.7095671 1.5000219 46 12 1.6812926e+09
-8.6706152 5.9336114 2.0336273 44 13 1.6812926e+09
-6.7636518 6.7118273 0.83059424 50 10 1.6812926e+09
-8.6539326 5.9399147 1.2826769 46 11 1.6812926e+09
-6.7700424 6.7228727 0.16592874 52 8 1.6812926e+09
-8.6489391 5.9497991 0.54834998 54 9 1.6812926e+09
-6.7718134 6.7293291 -0.5001601 38 6 1.6812926e+09
-8.659441 5.961462 -0.1829012 52 7 1.6812926e+09
-6.7837105 6.7482119 -1.1688911 34 4 1.6812926e+09
-8.6731663 5.9709172 -0.916354 40 5 1.6812926e+09
-4.3067384 4.287787 -1.1723202 19 2 1.6812926e+09
-6.1476631 4.2291832 -1.1776835 22 3 1.6812926e+09
-3.5530705 3.541934 -1.3339896 16 0 1.6812926e+09
-4.6193495 3.1721339 -1.2836514 18 1 1.6812926e+09
-6.7286358 6.7191348 2.1837797 50 14 1.6812926e+09
-8.6511621 5.9359121 2.7980661 46 15 1.6812926e+09
-6.7344685 6.7249784 1.498461 54 12 1.6812926e+09
-8.6306782 5.9484138 2.0288613 52 13 1.6812926e+09
-6.7278528 6.7230711 0.82906902 50 10 1.6812926e+09
-8.6208954 5.9616232 1.2808515 49 11 1.6812926e+09
-6.7318034 6.7293782 0.16553606 46 8 1.6812926e+09
-8.623003 5.974184 0.54795742 46 9 1.6812926e+09
-6.7388735 6.7411537 -0.49937248 38 6 1.6812926e+09
-8.6159792 5.9759927 -0.18242127 46 7 1.6812926e+09
-6.7507772 6.7601337 -1.1670657 34 4 1.6812926e+09
-8.636939 5.9882998 -0.91461432 40 5 1.6812926e+09
-4.309072 4.3201756 -1.1770819 18 2 1.6812926e+09
-6.199862 4.2969913 -1.1906036 22 3 1.6812926e+09
-3.5475004 3.5611613 -1.3365762 18 0 1.6812926e+09
-4.614819 3.191587 -1.285336 19 1 1.6812926e+09
-6.6982708 6.7356706 2.1815336 46 14 1.6812926e+09
-8.6144915 5.9550948 2.7928963 55 15 1.6812926e+09
-6.6970263 6.7344356 1.4953393 46 12 1.6812926e+09
-8.5917139 5.9659138 2.0245719 46 13 1.6812926e+09
-6.7020097 6.7418113 0.82863319 54 10 1.6812926e+09
-8.5735569 5.9732504 1.2768964 46 11 1.6812926e+09
-6.7082725 6.7528358 0.16553606 57 8 1.6812926e+09
-8.5672836 5.9799709 0.54573315 44 9 1.6812926e+09
-6.7012324 6.7504582 -0.49832228 39 6 1.6812926e+09
-8.5745716 5.9917231 -0.18198496 46 7 1.6812926e+09
-6.7184038 6.7748456 -1.1655444 37 4 1.6812926e+09
-8.5965548 6.0070848 -0.9126572 40 5 1.6812926e+09
-4.4234605 4.4660029 -1.2127943 18 2 1.6812926e+09
-6.2212806 4.3440294 -1.1976509 22 3 1.6812926e+09
-3.5299547 3.5683703 -1.3346363 18 0 1.6812926e+09
-4.5950918 3.2029145 -1.2830899 21 1 1.6812926e+09
-6.6764297 6.7607446 2.1820951 55 14 1.6812926e+09
-8.5658979 5.9658179 2.7838495 44 15 1.6812926e+09
-6.6648045 6.7489853 1.4933882 50 12 1.6812926e+09
-8.5466976 5.9789977 2.0188529 46 13 1.6812926e+09
-6.6632633 6.7521467 0.82689017 49 10 1.6812926e+09
-8.5282736 5.9860454 1.2732455 46 11 1.6812926e+09
-6.6694393 6.7631378 0.16518702 52 8 1.6812926e+09
-8.5228405 5.9955406 0.54429394 46 9 1.6812926e+09
-6.6624289 6.760745 -0.49727204 39 6 1.6812926e+09
-8.5392923 6.0115514 -0.18167955 43 7 1.6812926e+09
-6.6796036 6.785275 -1.1631105 37 4 1.6812926e+09
-8.5510874 6.0198622 -0.91004777 41 5 1.6812926e+09
-4.4078441 4.4814167 -1.2127943 18 2 1.6812926e+09
-6.1798143 4.3472667 -1.1925611 21 3 1.6812926e+09
-3.5191686 3.5823934 -1.3352829 17 0 1.6812926e+09
-4.5978475 3.228723 -1.2870206 22 1 1.6812926e+09
-6.620914 6.7538505 2.1719878 49 14 1.6812926e+09
-8.5242014 5.9833078 2.7773876 44 15 1.6812926e+09
-6.629652 6.7627845 1.4910468 50 12 1.6812926e+09
-8.5086756 5.9989767 2.0150399 44 13 1.6812926e+09
-6.6274533 6.7629113 0.82536483 50 10 1.6812926e+09
-8.4971943 6.0086198 1.2717243 46 11 1.6812926e+09
-6.6370478 6.7774453 0.16496885 49 8 1.6812926e+09
-8.4855595 6.0137129 0.54324722 46 9 1.6812926e+09
-6.6370435 6.782176 -0.49714079 39 6 1.6812926e+09
-8.4876633 6.0196447 -0.18102507 44 7 1.6812926e+09
-6.6506758 6.803226 -1.1621978 37 4 1.6812926e+09
-8.5157986 6.0395956 -0.90852559 40 5 1.6812926e+09
-4.3407435 4.4440908 -1.1985093 18 2 1.6812926e+09
nan nan nan 0 3 1.6812926e+09
-3.4982138 3.5860097 -1.3320498 17 0 1.6812926e+09
-4.5905285 3.2475634 -1.2881436 19 1 1.6812926e+09
-6.5933833 6.7705317 2.1703029 49 14 1.6812926e+09
-8.4727507 5.9892521 2.7670484 43 15 1.6812926e+09
-6.5968547 6.7741156 1.4887054 54 12 1.6812926e+09
-8.4627123 6.0087004 2.0088444 46 13 1.6812926e+09
-6.5881767 6.7699375 0.82340389 59 10 1.6812926e+09
-8.4519081 6.0209775 1.2680734 47 11 1.6812926e+09
-6.5936246 6.7779126 0.16444528 46 8 1.6812926e+09
-8.4574394 6.0360217 0.54272383 43 9 1.6812926e+09
-6.6005979 6.7898254 -0.49609059 39 6 1.6812926e+09
-8.4564266 6.041975 -0.18080692 44 7 1.6812926e+09
-6.6211653 6.8181214 -1.1609808 37 4 1.6812926e+09
-8.4774771 6.0547824 -0.90656853 40 5 1.6812926e+09
-4.2859139 4.4186854 -1.1875575 17 2 1.6812926e+09
-5.6386657 4.026196 -1.0931158 13 3 1.6812926e+09
-3.4890344 3.6016693 -1.333343 17 0 1.6812926e+09
-4.5777493 3.2613566 -1.2875822 22 1 1.6812926e+09
-6.547698 6.7707367 2.1630032 48 14 1.6812926e+09
-8.4360495 6.0075908 2.7618785 46 15 1.6812926e+09
-6.5594387 6.7828984 1.4855837 50 12 1.6812926e+09
-8.4237165 6.0253634 2.004555 44 13 1.6812926e+09
-6.5535755 6.7792106 0.82187861 56 10 1.6812926e+09
-8.4187403 6.0417681 1.266248 46 11 1.6812926e+09
-6.5751343 6.8062816 0.16457617 54 8 1.6812926e+09
-8.4200964 6.053854 0.54167712 46 9 1.6812926e+09
-6.5699215 6.8056383 -0.49556547 39 6 1.6812926e+09
-8.416048 6.0553951 -0.18037061 46 7 1.6812926e+09
-6.5801029 6.8233266 -1.1579384 35 4 1.6812926e+09
-8.4340458 6.0683465 -0.90417647 40 5 1.6812926e+09
-4.2721658 4.4353876 -1.1880337 17 2 1.6812926e+09
-5.6185608 4.0415325 -1.0919412 14 3 1.6812926e+09
-3.4653542 3.6010344 -1.3288167 16 0 1.6812926e+09
-4.5841594 3.2900848 -1.2926358 17 1 1.6812926e+09
-6.5105271 6.7794909 2.1585109 50 14 1.6812926e+09
-8.4052134 6.0299668 2.7586477 46 15 1.6812926e+09
-6.5374312 6.8075352 1.4859738 55 12 1.6812926e+09
-8.3847065 6.0418258 2.0002656 46 13 1.6812926e+09
-6.5315967 6.8038425 0.82209653 67 10 1.6812926e+09
-8.3754711 6.0551362 1.2629013 47 11 1.6812926e+09
-6.5288448 6.805738 0.16400899 70 8 1.6812926e+09
-8.3746433 6.0656471 0.54010707 52 9 1.6812926e+09
-6.5271254 6.8087025 -0.49412146 38 6 1.6812926e+09
-8.3786631 6.0730062 -0.18002155 52 7 1.6812926e+09
-6.5510974 6.8408766 -1.1570257 38 4 1.6812926e+09
-8.3906231 6.0816822 -0.90178448 40 5 1.6812926e+09
-4.2312188 4.4236627 -1.1808912 19 2 1.6812926e+09
-5.6284242 4.0784907 -1.0966395 10 3 1.6812926e+09
-3.4661057 3.6270809 -1.3339896 16 0 1.6812926e+09
-4.5943761 3.3217499 -1.2988126 18 1 1.6812926e+09
-6.4805937 6.798017 2.1568265 49 14 1.6812926e+09
-8.3673935 6.0494208 2.7534781 48 15 1.6812926e+09
-6.4919944 6.809999 1.4812912 50 12 1.6812926e+09
-8.3426418 6.0581055 1.9954997 50 13 1.6812926e+09
-6.4928727 6.8133106 0.82035339 52 10 1.6812926e+09
-8.3431902 6.0784912 1.2613801 50 11 1.6812926e+09
-6.5021329 6.8278117 0.16396534 54 8 1.6812926e+09
-8.3301659 6.0801201 0.5386678 47 9 1.6812926e+09
-6.4935222 6.8235354 -0.49346507 40 6 1.6812926e+09
-8.3300982 6.0845199 -0.17945436 44 7 1.6812926e+09
-6.5105958 6.8486524 -1.1542876 38 4 1.6812926e+09
-8.3521814 6.1006498 -0.90004492 40 5 1.6812926e+09
-4.209909 4.4338007 -1.1794627 17 2 1.6812926e+09
-6.6329079 4.8425031 -1.2967046 21 3 1.6812926e+09
-3.4428203 3.6292453 -1.33011 16 0 1.6812926e+09
-4.5585289 3.3213716 -1.2920743 17 1 1.6812926e+09
-6.4601736 6.8241367 2.1579494 52 14 1.6812926e+09
-8.3188868 6.0586991 2.744431 54 15 1.6812926e+09
-6.4647889 6.8290319 1.4805107 52 12 1.6812926e+09
-8.3115368 6.0799499 1.9931167 46 13 1.6812926e+09
-6.4776082 6.8449798 0.8214429 52 10 1.6812926e+09
-8.2939062 6.0870357 1.2571207 47 11 1.6812926e+09
-6.4713912 6.8432007 0.16379084 54 8 1.6812926e+09
-8.290782 6.0958581 0.53749025 44 9 1.6812926e+09
-6.4576635 6.833457 -0.49254614 41 6 1.6812926e+09
-8.2846413 6.0957942 -0.17893079 46 7 1.6812926e+09
-6.4764314 6.8605084 -1.152462 38 4 1.6812926e+09
-8.3147821 6.1179657 -0.89830524 40 5 1.6812926e+09
-4.2011395 4.4556136 -1.1813674 17 2 1.6812926e+09
-6.6378536 4.8817062 -1.3010114 19 3 1.6812926e+09
-3.4152331 3.6254151 -1.3242903 16 0 1.6812926e+09
-4.5095701 3.3099067 -1.2814053 16 1 1.6812926e+09
-6.4246359 6.834218 2.1540189 43 14 1.6812926e+09
-8.2879477 6.0805616 2.7412 46 15 1.6812926e+09
-6.4358387 6.8461576 1.4793401 44 12 1.6812926e+09
-8.2625952 6.0885558 1.9864445 44 13 1.6812926e+09
-6.4485593 6.862103 0.82078916 44 10 1.6812926e+09
-8.2586365 6.1056294 1.2549911 47 11 1.6812926e+09
-6.4372005 6.8548141 0.16352904 49 8 1.6812926e+09
-8.2393503 6.1024857 0.53552765 46 9 1.6812926e+09
-6.4183984 6.8395691 -0.49136466 40 6 1.6812926e+09
-8.2512598 6.1157503 -0.17866901 43 7 1.6812926e+09
-6.440567 6.8703995 -1.1503323 39 4 1.6812926e+09
-8.2713594 6.1306496 -0.8959133 39 5 1.6812926e+09
-4.2274833 4.5150504 -1.1932715 17 2 1.6812926e+09
-6.6187878 4.903378 -1.3006198 18 3 1.6812926e+09
-3.3926628 3.6267297 -1.3204106 16 0 1.6812926e+09
-4.5254297 3.3458812 -1.2892667 17 1 1.6812926e+09
-6.3957543 6.8512592 2.152334 58 14 1.6812926e+09
-8.241415 6.0908074 2.7327995 46 15 1.6812926e+09
-6.4068475 6.8631649 1.4781693 56 12 1.6812926e+09
-8.2255211 6.1056657 1.9826316 47 13 1.6812926e+09
-6.4228683 6.88275 0.8205713 63 10 1.6812926e+09
-8.2113924 6.1151652 1.2510359 46 11 1.6812926e+09
-6.4030061 6.866272 0.16326725 51 8 1.6812926e+09
-8.2039862 6.1207652 0.53461176 46 9 1.6812926e+09
-6.3859768 6.852798 -0.49070829 39 6 1.6812926e+09
-8.2038136 6.1250863 -0.17810179 44 7 1.6812926e+09
-6.4114742 6.8873897 -1.1494197 39 4 1.6812926e+09
-8.2359333 6.1490607 -0.894391 39 5 1.6812926e+09
-4.1866374 4.5028124 -1.1861291 18 2 1.6812926e+09
-6.4590936 4.8202071 -1.2724307 18 3 1.6812926e+09
-3.3635526 3.6208513 -1.3139442 17 0 1.6812926e+09
-4.5176334 3.3645649 -1.2903898 17 1 1.6812926e+09
-6.3618655 6.8628225 2.1489651 52 14 1.6812926e+09
-8.2026644 6.1065664 2.7269838 43 15 1.6812926e+09
-6.3677464 6.8691869 1.4746574 57 12 1.6812926e+09
-8.1825304 6.118185 1.9773891 46 13 1.6812926e+09
-6.3801866 6.8850312 0.81817454 51 10 1.6812926e+09
-8.1741114 6.1318851 1.248602 46 11 1.6812926e+09
-6.3688121 6.8775754 0.16300547 55 8 1.6812926e+09
-8.1745853 6.1433697 0.53408843 46 9 1.6812926e+09
-6.3586268 6.8713827 -0.49044573 42 6 1.6812926e+09
-8.168395 6.1431746 -0.17779638 46 7 1.6812926e+09
-6.3840256 6.9060831 -1.1488112 40 4 1.6812926e+09
-8.1984911 6.1658039 -0.89265144 40 5 1.6812926e+09
-4.2075105 4.5570793 -1.1966047 19 2 1.6812926e+09
-6.4422283 4.8427243 -1.2724307 21 3 1.6812926e+09
-3.3476195 3.6290188 -1.312651 16 0 1.6812926e+09
-4.4941621 3.371552 -1.2870206 18 1 1.6812926e+09
-6.3279738 6.8742313 2.1455958 52 14 1.6812926e+09
-8.1619701 6.1206818 2.7205215 47 15 1.6812926e+09
-6.3353696 6.8822865 1.4727062 56 12 1.6812926e+09
-8.147398 6.1363807 1.9740529 44 13 1.6812926e+09
-6.3409395 6.8907628 0.81621355 51 10 1.6812926e+09
-8.1427546 6.1529055 1.2470808 46 11 1.6812926e+09
-6.3396907 6.8942437 0.16287456 78 8 1.6812926e+09
-8.1391535 6.1613255 0.53317255 47 9 1.6812926e+09
-6.3210907 6.8788271 -0.48939553 41 6 1.6812926e+09
-8.1389294 6.165617 -0.17762186 46 7 1.6812926e+09
-6.3514924 6.9191842 -1.14729 40 4 1.6812926e+09
-8.1610308 6.1823597 -0.89091176 40 5 1.6812926e+09
-4.2446351 4.6296406 -1.2118419 21 2 1.6812926e+09
-6.5532923 4.9619942 -1.2978792 18 3 1.6812926e+09
-3.3186257 3.6228685 -1.3061846 16 0 1.6812926e+09
-4.4804206 3.3857517 -1.2864591 17 1 1.6812926e+09
-6.2907925 6.8818908 2.1411035 46 14 1.6812926e+09
-8.1232061 6.1360421 2.7147057 46 15 1.6812926e+09
-6.2929835 6.8843064 1.4684137 48 12 1.6812926e+09
-8.1141939 6.155889 1.9711934 46 13 1.6812926e+09
-6.3067694 6.9018221 0.81490618 50 10 1.6812926e+09
-8.1005754 6.1633554 1.2437341 50 11 1.6812926e+09
-6.297049 6.8960228 0.16239463 54 8 1.6812926e+09
-8.1017084 6.1775951 0.53212577 46 9 1.6812926e+09
-6.2903104 6.8934722 -0.48887041 42 6 1.6812926e+09
-8.1014538 6.1818657 -0.1772728 50 7 1.6812926e+09
-6.3206158 6.9339762 -1.146073 40 4 1.6812926e+09
-8.115634 6.1926908 -0.88830233 40 5 1.6812926e+09
-4.315166 4.7380681 -1.2366027 17 2 1.6812926e+09
-6.5269804 4.9762187 -1.2959217 18 3 1.6812926e+09
-3.3010864 3.62907 -1.3042449 16 0 1.6812926e+09
-4.4569373 3.3925276 -1.2830899 16 1 1.6812926e+09
-6.2597504 6.8936949 2.1382959 52 14 1.6812926e+09
-8.0912762 6.1541796 2.7108285 46 15 1.6812926e+09
-6.2750988 6.9106231 1.4695845 51 12 1.6812926e+09
-8.0781279 6.1708522 1.9673806 48 13 1.6812926e+09
-6.2642341 6.9035039 0.81250948 54 10 1.6812926e+09
-8.0671911 6.1825433 1.2419088 52 11 1.6812926e+09
-6.2791839 6.9224224 0.16252553 78 8 1.6812926e+09
-8.0732546 6.1983495 0.53160244 51 9 1.6812926e+09
-6.2556815 6.9013433 -0.48795149 42 6 1.6812926e+09
-8.0639658 6.1979289 -0.17692377 51 7 1.6812926e+09
-6.2909255 6.9475384 -1.1448561 40 4 1.6812926e+09
-8.0812254 6.2089539 -0.88678014 39 5 1.6812926e+09
-4.1718817 4.6129084 -1.1999378 18 2 1.6812926e+09
-6.3077755 4.8441849 -1.2555954 21 3 1.6812926e+09
-3.2754538 3.6262295 -1.2990719 17 0 1.6812926e+09
-4.443728 3.405808 -1.2825284 16 1 1.6812926e+09
-6.2291245 6.9082665 2.13605 52 14 1.6812926e+09
-8.0620737 6.1765146 2.7082436 51 15 1.6812926e+09
-6.2327518 6.9123087 1.465292 48 12 1.6812926e+09
-8.0429173 6.1885419 1.9640445 49 13 1.6812926e+09
-6.2396398 6.9223886 0.8122915 51 10 1.6812926e+09
-8.0259113 6.1955113 1.2388663 49 11 1.6812926e+09
-6.2365837 6.9238648 0.16204558 59 8 1.6812926e+09
-8.0278616 6.2081761 0.53003234 49 9 1.6812926e+09
-6.2265444 6.9175706 -0.48755768 42 6 1.6812926e+09
-8.0323954 6.2183928 -0.17670561 49 7 1.6812926e+09
-6.2600012 6.9620738 -1.1436392 40 4 1.6812926e+09
-8.0387135 6.2232947 -0.88460565 39 5 1.6812926e+09
-4.1950974 4.671277 -1.2113658 17 2 1.6812926e+09
-6.2908278 4.8661737 -1.2555954 19 3 1.6812926e+09
-3.2627757 3.6376405 -1.2990719 17 0 1.6812926e+09
-4.4196386 3.4131477 -1.2791592 16 1 1.6812926e+09
-6.2049727 6.9299679 2.13605 50 14 1.6812926e+09
-8.0194254 6.1883988 2.7011354 46 15 1.6812926e+09
-6.2085853 6.9340224 1.465292 51 12 1.6812926e+09
-8.0018625 6.2015553 1.9592786 46 13 1.6812926e+09
-6.2125659 6.9433551 0.81207365 56 10 1.6812926e+09
-7.9924784 6.2143559 1.2370409 51 11 1.6812926e+09
-6.2111645 6.9466767 0.16204558 58 8 1.6812926e+09
-7.9952035 6.2298899 0.52937818 46 9 1.6812926e+09
-6.1944966 6.9328976 -0.48703256 42 6 1.6812926e+09
-7.9869785 6.2279592 -0.17618203 46 7 1.6812926e+09
-6.222878 6.9720106 -1.1415095 40 4 1.6812926e+09
-7.9992585 6.2375417 -0.88264853 39 5 1.6812926e+09
-4.1232462 4.6235995 -1.1951762 19 2 1.6812926e+09
-6.301084 4.9093332 -1.2610767 18 3 1.6812926e+09
-3.2548747 3.6544194 -1.3010117 16 0 1.6812926e+09
-4.4096217 3.4300485 -1.2797207 17 1 1.6812926e+09
-6.1762953 6.9490213 2.1349268 52 14 1.6812926e+09
-7.9833388 6.2073789 2.6966119 46 15 1.6812926e+09
-6.176569 6.949348 1.4637311 49 12 1.6812926e+09
-7.9655342 6.2202744 1.9559425 46 13 1.6812926e+09
-6.1767149 6.9519649 0.81054842 43 10 1.6812926e+09
-7.9492397 6.2253971 1.2336943 44 11 1.6812926e+09
-6.1785822 6.9589682 0.16182743 44 8 1.6812926e+09
-7.9537625 6.2423563 0.52806979 46 9 1.6812926e+09
-6.1619759 6.9451394 -0.4863762 42 6 1.6812926e+09
-7.9573245 6.2496295 -0.17600751 44 7 1.6812926e+09
-6.1919212 6.9862609 -1.1402925 40 4 1.6812926e+09
-7.9656806 6.2562017 -0.88134378 38 5 1.6812926e+09
-4.0241284 4.5442348 -1.1708918 18 2 1.6812926e+09
-6.1323285 4.8124871 -1.2305382 17 3 1.6812926e+09
-3.2628887 3.6892827 -1.309418 15 0 1.6812926e+09
-4.407217 3.4529243 -1.2825284 16 1 1.6812926e+09
-6.1483808 6.9639835 2.1332421 44 14 1.6812926e+09
-7.9379807 6.2144761 2.6882112 44 15 1.6812926e+09
-6.1502223 6.9660883 1.4629506 54 12 1.6812926e+09
-7.9313536 6.236043 1.9526061 46 13 1.6812926e+09
-6.1540565 6.9753504 0.81076628 54 10 1.6812926e+09
-7.9138184 6.2423563 1.2315646 46 11 1.6812926e+09
-6.1505117 6.9737926 0.16169652 63 8 1.6812926e+09
-7.9173417 6.2563214 0.52702308 48 9 1.6812926e+09
-6.127358 6.9524221 -0.48545727 41 6 1.6812926e+09
-7.9080052 6.2556691 -0.17539668 44 7 1.6812926e+09
-6.1588831 6.9955788 -1.1384671 41 4 1.6812926e+09
-7.9253483 6.2671432 -0.87916929 39 5 1.6812926e+09
-3.9904199 4.5379758 -1.1656539 19 2 1.6812926e+09
-6.1658807 4.8736434 -1.2407178 24 3 1.6812926e+09
-3.2611413 3.7133555 -1.3139442 16 0 1.6812926e+09
-4.3880858 3.4614913 -1.2802823 17 1 1.6812926e+09
-6.1160064 6.9762421 2.1304345 52 14 1.6812926e+09
-7.9105492 6.2376642 2.6862726 48 15 1.6812926e+09
-6.1177311 6.978229 1.4609995 47 12 1.6812926e+09
-7.8825927 6.2423725 1.9459338 49 13 1.6812926e+09
-6.117764 6.9807334 0.8090232 55 10 1.6812926e+09
-7.8803182 6.2606859 1.2297391 44 11 1.6812926e+09
-6.1162529 6.9839363 0.16143475 54 8 1.6812926e+09
-7.8837299 6.2745967 0.52623802 47 9 1.6812926e+09
-6.0981212 6.9681311 -0.48506343 41 6 1.6812926e+09
