# .PCD v0.7 - Point Cloud Data file format
VERSION 0.7
FIELDS x y z intensity ring timestamp
SIZE 4 4 4 4 2 8
TYPE F F F F U F
COUNT 1 1 1 1 1 1
WIDTH 960
HEIGHT 1
VIEWPOINT 0 0 0 1 0 0 0
POINTS 960
DATA ascii
3.0528882 -4.9171557 -0.50232029 2 5 1.6812914e+09
2.9696233 -7.5302444 -1.5637286 11 2 1.6812914e+09
3.069798 -4.9386368 -0.91654158 1 3 1.6812914e+09
1.3658904 -3.4680777 -0.98869133 7 0 1.6812914e+09
nan nan nan 0 1 1.6812914e+09
3.4180169 -8.7035675 2.1472802 35 14 1.6812914e+09
5.4872303 -8.8004951 2.7657559 32 15 1.6812914e+09
3.4238424 -8.718442 1.4746574 36 12 1.6812914e+09
8.7455864 -14.086509 3.2131977 20 13 1.6812914e+09
3.3635745 -8.5737076 0.80270439 45 10 1.6812914e+09
3.4377046 -5.5618224 0.79741371 8 11 1.6812914e+09
3.3637292 -8.5829353 0.16030034 90 8 1.6812914e+09
3.4186585 -5.5439806 0.33952948 7 9 1.6812914e+09
3.3666325 -8.5991859 -0.48375067 70 6 1.6812914e+09
3.038873 -4.9328923 -0.10052586 12 7 1.6812914e+09
3.3617089 -8.5998535 -1.1278187 49 4 1.6812914e+09
3.0487847 -4.9489765 -0.50449485 18 5 1.6812914e+09
2.9424279 -7.5382776 -1.5632523 11 2 1.6812914e+09
nan nan nan 0 3 1.6812914e+09
1.3660408 -3.5043304 -0.99774408 11 0 1.6812914e+09
nan nan nan 0 1 1.6812914e+09
3.3825674 -8.706953 2.1450343 35 14 1.6812914e+09
5.4447689 -8.804121 2.760586 33 15 1.6812914e+09
3.3829265 -8.7079115 1.4707551 35 12 1.6812914e+09
8.6411161 -14.032805 3.1936576 28 13 1.6812914e+09
3.3597558 -8.652729 0.8090232 46 10 1.6812914e+09
3.4104767 -5.5611024 0.79558831 15 11 1.6812914e+09
3.3518193 -8.6412363 0.16117296 43 8 1.6812914e+09
3.459291 -5.6537995 0.34554815 20 9 1.6812914e+09
3.3438079 -8.629509 -0.4848009 35 6 1.6812914e+09
3.0346882 -4.9647875 -0.10096216 42 7 1.6812914e+09
3.3343534 -8.6184788 -1.1287314 33 4 1.6812914e+09
3.0405946 -4.9744563 -0.50601697 38 5 1.6812914e+09
2.9143283 -7.5439234 -1.5623 11 2 1.6812914e+09
3.4159417 -5.5809436 -1.0320392 9 3 1.6812914e+09
1.3555366 -3.5135841 -0.99903738 21 0 1.6812914e+09
3.3659515 -5.4865952 -1.4756937 16 1 1.6812914e+09
3.4883046 -9.0682955 2.2315094 35 14 1.6812914e+09
5.4054284 -8.8056679 2.7554166 30 15 1.6812914e+09
3.4603691 -8.9956684 1.5175821 34 12 1.6812914e+09
8.5778866 -14.034164 3.1874616 27 13 1.6812914e+09
3.3277457 -8.6597538 0.80858743 43 10 1.6812914e+09
3.3781304 -5.551784 0.79254586 39 11 1.6812914e+09
3.3303118 -8.6709728 0.16152202 42 8 1.6812914e+09
3.3808432 -5.567122 0.33952948 46 9 1.6812914e+09
3.3339443 -8.6895027 -0.48755768 39 6 1.6812914e+09
3.0277226 -4.9924402 -0.10131121 34 7 1.6812914e+09
3.3270497 -8.6851063 -1.1360332 12 4 1.6812914e+09
3.0370176 -5.005795 -0.50819153 33 5 1.6812914e+09
2.8923573 -7.5655141 -1.5646809 11 2 1.6812914e+09
3.3964396 -5.592834 -1.0320392 16 3 1.6812914e+09
1.3467048 -3.5273206 -1.0016239 11 0 1.6812914e+09
3.3515444 -5.5039659 -1.4773784 20 1 1.6812914e+09
nan nan nan 0 14 1.6812914e+09
5.4174018 -8.8945904 2.7773876 26 15 1.6812914e+09
3.4087515 -8.9546099 1.5086069 14 12 1.6812914e+09
8.5097485 -14.03255 3.1803126 28 13 1.6812914e+09
3.4255946 -9.0036259 0.83974564 35 10 1.6812914e+09
3.3523107 -5.5529251 0.79102468 50 11 1.6812914e+09
3.4127533 -8.9793081 0.16706316 38 8 1.6812914e+09
3.35623 -5.5703397 0.33900616 75 9 1.6812914e+09
nan nan nan 0 6 1.6812914e+09
3.0257618 -5.0286684 -0.10183479 34 7 1.6812914e+09
nan nan nan 0 4 1.6812914e+09
3.0289354 -5.0339565 -0.50993121 33 5 1.6812914e+09
2.8641953 -7.5709724 -1.5637286 9 2 1.6812914e+09
3.3743451 -5.6004281 -1.0312561 40 3 1.6812914e+09
1.3301218 -3.5207026 -0.99839073 11 0 1.6812914e+09
3.3414357 -5.5328884 -1.4818705 11 1 1.6812914e+09
3.3279216 -8.8347988 2.168057 7 14 1.6812914e+09
5.4150701 -8.9609747 2.7922502 19 15 1.6812914e+09
3.3400614 -8.8670797 1.4918272 8 12 1.6812914e+09
8.4493208 -14.043246 3.1760235 1 13 1.6812914e+09
3.3426015 -8.8832483 0.82732582 12 10 1.6812914e+09
3.3341835 -5.566721 0.79132897 33 11 1.6812914e+09
3.3279552 -8.8536987 0.16448893 43 8 1.6812914e+09
3.3370736 -5.5847459 0.33913699 41 9 1.6812914e+09
3.4506207 -9.1899633 -0.5143379 34 6 1.6812914e+09
3.0235851 -5.0649428 -0.10235836 33 7 1.6812914e+09
3.4502599 -9.2036314 -1.2008363 36 4 1.6812914e+09
3.0241277 -5.0658736 -0.51210576 33 5 1.6812914e+09
2.8368902 -7.5786252 -1.5632523 9 2 1.6812914e+09
3.3370178 -5.5825129 -1.0257748 52 3 1.6812914e+09
1.3085343 -3.5004373 -0.99127787 11 0 1.6812914e+09
3.3296237 -5.5570517 -1.4852396 6 1 1.6812914e+09
3.2895679 -8.8309546 2.1641264 6 14 1.6812914e+09
10.842504 -18.082636 5.6323195 42 15 1.6812914e+09
3.3015087 -8.8630638 1.4890957 9 12 1.6812914e+09
5.2638617 -8.8252354 1.9888273 35 13 1.6812914e+09
3.3124413 -8.8971958 0.8275438 12 10 1.6812914e+09
3.332499 -5.6081777 0.79558831 28 11 1.6812914e+09
3.289192 -8.8441753 0.16409625 45 8 1.6812914e+09
3.335403 -5.6264133 0.34096873 28 9 1.6812914e+09
3.4211276 -9.208972 -0.51473171 36 6 1.6812914e+09
3.018641 -5.0969634 -0.10279467 34 7 1.6812914e+09
3.415525 -9.2086391 -1.1999235 32 4 1.6812914e+09
3.0267587 -5.1106696 -0.51558501 30 5 1.6812914e+09
2.8070111 -7.5792756 -1.5613477 11 2 1.6812914e+09
3.3225548 -5.6026192 -1.0273409 32 3 1.6812914e+09
1.3105303 -3.5434949 -1.0022705 11 0 1.6812914e+09
3.2790482 -5.5163112 -1.4712015 2 1 1.6812914e+09
3.2686894 -8.8646736 2.1697414 3 14 1.6812914e+09
10.84302 -18.220171 5.6639838 52 15 1.6812914e+09
3.2763689 -8.8855476 1.4910468 3 12 1.6812914e+09
5.228312 -8.8320866 1.9864445 41 13 1.6812914e+09
3.2693191 -8.8759842 0.82449335 19 10 1.6812914e+09
3.3431821 -5.6710582 0.80289006 41 11 1.6812914e+09
3.2563927 -8.8456497 0.16392171 43 8 1.6812914e+09
3.3395419 -5.6761599 0.34332386 38 9 1.6812914e+09
3.3836808 -9.20152 -0.51368147 36 6 1.6812914e+09
3.0109739 -5.1247034 -0.10314371 32 7 1.6812914e+09
3.3755665 -9.1942902 -1.196577 3 4 1.6812914e+09
3.0224309 -5.1421404 -0.51775956 32 5 1.6812914e+09
2.7813811 -7.5913329 -1.5618238 9 2 1.6812914e+09
3.325542 -5.6524744 -1.0343883 29 3 1.6812914e+09
1.2451148 -3.4028778 -0.96088642 15 0 1.6812914e+09
3.2607372 -5.527154 -1.4712015 2 1 1.6812914e+09
3.2869558 -9.0110664 2.2028716 3 14 1.6812914e+09
10.845679 -18.370193 5.6988783 53 15 1.6812914e+09
3.2529447 -8.9178095 1.4945588 1 12 1.6812914e+09
5.1775508 -8.816433 1.978819 40 13 1.6812914e+09
3.268856 -8.9663363 0.83190161 1 10 1.6812914e+09
3.3396704 -5.7105279 0.80684513 32 11 1.6812914e+09
2.8057301 -7.7036657 0.1424989 48 8 1.6812914e+09
3.336087 -5.7158008 0.34502476 30 9 1.6812914e+09
2.787674 -7.6623793 -0.42690834 22 6 1.6812914e+09
3.0081916 -5.1610856 -0.10366729 32 7 1.6812914e+09
3.3730848 -9.2876558 -1.2072254 9 4 1.6812914e+09
3.0186334 -5.1789923 -0.52036905 30 5 1.6812914e+09
2.7623875 -7.6217628 -1.5661094 7 2 1.6812914e+09
3.3282211 -5.7024174 -1.0414355 41 3 1.6812914e+09
1.2480034 -3.4480846 -0.97252572 15 0 1.6812914e+09
3.3118937 -5.660974 -1.5037701 8 1 1.6812914e+09
7.9263315 -21.974989 5.3766241 26 14 1.6812914e+09
10.847425 -18.520458 5.7337737 47 15 1.6812914e+09
5.0956888 -14.125511 2.3674903 39 12 1.6812914e+09
5.1393261 -8.8217306 1.9759593 39 13 1.6812914e+09
5.0852432 -14.111998 1.3092972 1 10 1.6812914e+09
3.3359239 -5.750042 0.81080031 19 11 1.6812914e+09
2.7580109 -7.659802 0.14149538 9 8 1.6812914e+09
3.3338962 -5.7603889 0.34698737 20 9 1.6812914e+09
2.7561934 -7.663147 -0.42638323 29 6 1.6812914e+09
3.0051916 -5.1975102 -0.10419086 32 7 1.6812914e+09
nan nan nan 0 4 1.6812914e+09
3.011771 -5.2088938 -0.52232611 30 5 1.6812914e+09
2.7622523 -7.7052927 -1.5813466 3 2 1.6812914e+09
3.3182054 -5.7310886 -1.0445677 30 3 1.6812914e+09
1.2367725 -3.4546938 -0.97317225 15 0 1.6812914e+09
3.311702 -5.7061982 -1.5127546 25 1 1.6812914e+09
7.7663898 -21.781309 5.322156 20 14 1.6812914e+09
10.847419 -18.677025 5.7699614 49 15 1.6812914e+09
5.0248117 -14.090594 2.3585153 49 12 1.6812914e+09
5.0971293 -8.8235121 1.9721465 34 13 1.6812914e+09
5.0309372 -14.115586 1.3079898 62 10 1.6812914e+09
nan nan nan 0 11 1.6812914e+09
2.7522085 -7.7282553 0.14258616 18 8 1.6812914e+09
nan nan nan 0 9 1.6812914e+09
2.743643 -7.7127109 -0.42861488 25 6 1.6812914e+09
3.0069549 -5.2426462 -0.10488895 33 7 1.6812914e+09
2.7430041 -7.7237067 -1.0006462 1 4 1.6812914e+09
3.0097001 -5.2474484 -0.52515304 30 5 1.6812914e+09
1.5763627 -4.4438539 -0.90804821 1 2 1.6812914e+09
3.3191102 -5.7790203 -1.0512234 23 3 1.6812914e+09
1.2343651 -3.4863122 -0.98093182 7 0 1.6812914e+09
3.3148856 -5.7578211 -1.5234236 22 1 1.6812914e+09
7.681962 -21.77248 5.3137326 20 14 1.6812914e+09
10.855395 -18.834238 5.8074408 49 15 1.6812914e+09
4.9714861 -14.088551 2.3553934 63 12 1.6812914e+09
5.056848 -8.8212099 1.9678574 34 13 1.6812914e+09
4.9799786 -14.128363 1.307554 61 10 1.6812914e+09
4.8919792 -8.56497 1.2050958 1 11 1.6812914e+09
2.7489831 -7.8009987 0.1437642 4 8 1.6812914e+09
nan nan nan 0 9 1.6812914e+09
2.7296503 -7.7547383 -0.43045279 8 6 1.6812914e+09
2.9997756 -5.2726555 -0.10528164 32 7 1.6812914e+09
3.4680338 -9.8703203 -1.2784176 1 4 1.6812914e+09
3.0107858 -5.2898536 -0.52841485 30 5 1.6812914e+09
1.5584065 -4.4423804 -0.90661967 2 2 1.6812914e+09
3.4543321 -6.0629315 -1.1009462 3 3 1.6812914e+09
1.2237819 -3.4951584 -0.98222506 7 0 1.6812914e+09
3.318763 -5.8089557 -1.5340925 32 1 1.6812914e+09
7.585053 -21.739359 5.2991328 19 14 1.6812914e+09
10.850741 -18.978926 5.8403974 49 15 1.6812914e+09
4.9165845 -14.089497 2.3526618 57 12 1.6812914e+09
5.0588055 -8.8963928 1.9807252 30 13 1.6812914e+09
4.8855486 -14.008404 1.2949165 47 10 1.6812914e+09
4.8534827 -8.566885 1.2029661 1 11 1.6812914e+09
nan nan nan 0 8 1.6812914e+09
3.4207435 -6.0529637 0.36255732 1 9 1.6812914e+09
2.7255301 -7.8302422 -0.43412849 22 6 1.6812914e+09
2.994884 -5.3070307 -0.10576158 32 7 1.6812914e+09
3.4669333 -9.9784746 -1.2908914 1 4 1.6812914e+09
3.0073106 -5.3290377 -0.53124177 30 5 1.6812914e+09
1.538873 -4.4361987 -0.90423888 3 2 1.6812914e+09
3.4477427 -6.1007385 -1.1056443 3 3 1.6812914e+09
1.2147301 -3.5085385 -0.98481154 23 0 1.6812914e+09
3.3130779 -5.8486247 -1.5413924 30 1 1.6812914e+09
7.5019736 -21.744978 5.2940793 20 14 1.6812914e+09
10.844016 -19.121712 5.8727078 46 15 1.6812914e+09
4.8456335 -14.043545 2.3421259 50 12 1.6812914e+09
5.0602989 -8.9716969 1.9935932 25 13 1.6812914e+09
4.8301163 -14.014442 1.2938269 45 10 1.6812914e+09
4.7992172 -8.5405207 1.1968812 1 11 1.6812914e+09
2.760601 -8.0166454 0.14738557 32 8 1.6812914e+09
3.4009788 -6.0698156 0.36281902 1 9 1.6812914e+09
2.7154784 -7.8944817 -0.43714783 27 6 1.6812914e+09
2.9959006 -5.3523374 -0.10645968 29 7 1.6812914e+09
3.389261 -9.8714142 -1.2753751 18 4 1.6812914e+09
3.0057435 -5.3699155 -0.53428614 23 5 1.6812914e+09
1.524969 -4.446187 -0.90519124 3 2 1.6812914e+09
3.4457657 -6.1471853 -1.1119087 3 3 1.6812914e+09
1.207943 -3.5287535 -0.98933792 12 0 1.6812914e+09
3.3177333 -5.9047375 -1.5531845 25 1 1.6812914e+09
7.4049349 -21.721598 5.2817259 13 14 1.6812914e+09
10.852008 -19.300249 5.9153576 46 15 1.6812914e+09
4.7718244 -13.995766 2.3311994 40 12 1.6812914e+09
7.8756757 -14.078261 3.1259809 30 13 1.6812914e+09
4.8148937 -14.130231 1.3029784 46 10 1.6812914e+09
4.7826753 -8.5810566 1.2002279 1 11 1.6812914e+09
4.784874 -14.058196 0.25860101 39 8 1.6812914e+09
3.3858411 -6.092557 0.36347321 2 9 1.6812914e+09
3.4944336 -10.277146 -0.56894857 1 6 1.6812914e+09
2.9917777 -5.3889756 -0.10698324 25 7 1.6812914e+09
3.426532 -10.094672 -1.3027568 81 4 1.6812914e+09
3.0063481 -5.4152002 -0.53776538 2 5 1.6812914e+09
1.5125887 -4.4607806 -0.90709585 3 2 1.6812914e+09
nan nan nan 0 3 1.6812914e+09
1.1971642 -3.5375245 -0.99063122 11 0 1.6812914e+09
3.3208489 -5.9588261 -1.564415 12 1 1.6812914e+09
7.3250799 -21.72295 5.2761106 20 14 1.6812914e+09
10.857395 -19.460545 5.9534831 42 15 1.6812914e+09
4.759306 -14.112129 2.3479791 42 12 1.6812914e+09
7.7741303 -14.005611 3.1040576 30 13 1.6812914e+09
4.7536187 -14.111547 1.29971 46 10 1.6812914e+09
4.733469 -8.5629616 1.1953601 1 11 1.6812914e+09
4.735837 -14.066877 0.25847012 60 8 1.6812914e+09
3.3969996 -6.160573 0.36687502 2 9 1.6812914e+09
3.4993124 -10.404634 -0.57538104 6 6 1.6812914e+09
2.9910576 -5.4322181 -0.10763771 26 7 1.6812914e+09
3.5082932 -10.449444 -1.3471758 90 4 1.6812914e+09
3.00161 -5.4491262 -0.54015744 16 5 1.6812914e+09
1.4931128 -4.4543972 -0.90471506 3 2 1.6812914e+09
nan nan nan 0 3 1.6812914e+09
1.1710373 -3.500452 -0.97899193 11 0 1.6812914e+09
3.3116932 -5.9889851 -1.5694687 9 1 1.6812914e+09
7.2399664 -21.720652 5.269372 21 14 1.6812914e+09
10.859582 -19.625095 5.9922552 45 15 1.6812914e+09
4.6905007 -14.07009 2.3382235 38 12 1.6812914e+09
7.7145371 -14.013318 3.0997684 29 13 1.6812914e+09
4.6792536 -14.044533 1.2920839 49 10 1.6812914e+09
4.7059369 -8.5837812 1.1959684 1 11 1.6812914e+09
4.7024856 -14.130761 0.25934273 59 8 1.6812914e+09
3.3886664 -6.1964793 0.36831427 2 9 1.6812914e+09
3.4983966 -10.523397 -0.58128846 2 6 1.6812914e+09
2.9864726 -5.4689407 -0.10816128 25 7 1.6812914e+09
3.5397608 -10.666533 -1.3736447 88 4 1.6812914e+09
2.9959605 -5.4863105 -0.54276687 12 5 1.6812914e+09
1.479097 -4.4642425 -0.90566742 3 2 1.6812914e+09
nan nan nan 0 3 1.6812914e+09
1.1701673 -3.5389161 -0.98869133 12 0 1.6812914e+09
3.2838578 -5.990406 -1.5666611 9 1 1.6812914e+09
7.1564817 -21.722652 5.2637568 22 14 1.6812914e+09
10.859591 -19.787781 6.0303817 41 15 1.6812914e+09
4.6266804 -14.041814 2.3308094 39 12 1.6812914e+09
7.6479244 -14.007854 3.0926194 32 13 1.6812914e+09
4.629303 -14.06632 1.2925197 48 10 1.6812914e+09
4.6640825 -8.5783615 1.192926 1 11 1.6812914e+09
4.6264725 -14.074285 0.25799018 39 8 1.6812914e+09
3.386184 -6.2461572 0.37053856 2 9 1.6812914e+09
6.9428926 -21.148754 -1.1686156 1 6 1.6812914e+09
2.9852436 -5.512289 -0.10881574 25 7 1.6812914e+09
3.2688732 -9.9720087 -1.2823727 54 4 1.6812914e+09
2.9957933 -5.5317607 -0.54624611 6 5 1.6812914e+09
1.4589275 -4.4553819 -0.90281034 3 2 1.6812914e+09
3.370209 -6.2142239 -1.1154323 1 3 1.6812914e+09
1.1091182 -3.3937511 -0.94666064 12 0 1.6812914e+09
3.2710826 -6.016809 -1.5705918 16 1 1.6812914e+09
7.0692811 -21.725571 5.2581415 22 14 1.6812914e+09
10.86204 -19.965328 6.0723853 47 15 1.6812914e+09
4.5690727 -14.039891 2.3276875 41 12 1.6812914e+09
7.6000376 -14.042267 3.0940492 41 13 1.6812914e+09
4.5855646 -14.098974 1.2940449 43 10 1.6812914e+09
4.6282163 -8.5836716 1.1914049 1 11 1.6812914e+09
4.5719118 -14.073707 0.25768477 41 8 1.6812914e+09
3.3856652 -6.2975063 0.37289369 2 9 1.6812914e+09
6.8582439 -21.139614 -1.1667777 1 6 1.6812914e+09
2.980195 -5.5490909 -0.10933932 20 7 1.6812914e+09
3.43277 -10.597159 -1.3614752 62 4 1.6812914e+09
2.9906251 -5.5685039 -0.5488556 11 5 1.6812914e+09
1.4433664 -4.4604473 -0.90281034 3 2 1.6812914e+09
3.3906515 -6.3042083 -1.1295269 1 3 1.6812914e+09
1.095042 -3.3907065 -0.94472075 14 0 1.6812914e+09
3.2535329 -6.0346208 -1.5722765 15 1 1.6812914e+09
6.9949589 -21.741938 5.2564573 22 14 1.6812914e+09
10.863477 -20.126614 6.1105108 48 15 1.6812914e+09
4.5224891 -14.054966 2.3276875 41 12 1.6812914e+09
7.5580769 -14.076039 3.0959556 41 13 1.6812914e+09
4.5439391 -14.138605 1.2962238 60 10 1.6812914e+09
4.5935411 -8.5910244 1.1901879 1 11 1.6812914e+09
4.5366788 -14.12449 0.25833923 43 8 1.6812914e+09
3.4012284 -6.3769636 0.3769497 2 9 1.6812914e+09
6.7804818 -21.138466 -1.165465 57 6 1.6812914e+09
2.980809 -5.596952 -0.11008105 11 7 1.6812914e+09
3.4278688 -10.703015 -1.3736447 22 4 1.6812914e+09
2.9873877 -5.6069531 -0.55168247 7 5 1.6812914e+09
1.4248016 -4.4561071 -0.90090573 3 2 1.6812914e+09
3.3849125 -6.3464966 -1.1350082 2 3 1.6812914e+09
1.0875976 -3.4083145 -0.94860053 11 0 1.6812914e+09
3.2312024 -6.0410819 -1.5711534 16 1 1.6812914e+09
6.9101691 -21.738359 5.2497187 21 14 1.6812914e+09
10.867264 -20.302795 6.1525145 45 15 1.6812914e+09
4.486115 -14.110674 2.3343213 46 12 1.6812914e+09
7.5100508 -14.104503 3.0964322 34 13 1.6812914e+09
4.4872289 -14.122739 1.2933912 45 10 1.6812914e+09
4.5530543 -8.5872812 1.1874497 1 11 1.6812914e+09
4.4782782 -14.11165 0.25781566 41 8 1.6812914e+09
4.6468863 -8.782505 0.518911 3 9 1.6812914e+09
6.6960964 -21.128685 -1.1636271 74 6 1.6812914e+09
2.9774325 -5.6355262 -0.11064824 12 7 1.6812914e+09
nan nan nan 0 4 1.6812914e+09
2.9829426 -5.6459637 -0.5545094 12 5 1.6812914e+09
1.4107149 -4.4657345 -0.90185803 3 2 1.6812914e+09
3.3789194 -6.3888202 -1.1404893 2 3 1.6812914e+09
1.1118329 -3.5247691 -0.98028523 8 0 1.6812914e+09
3.2100954 -6.0523243 -1.5711534 13 1 1.6812914e+09
6.8335161 -21.760025 5.249157 22 14 1.6812914e+09
10.864287 -20.468582 6.1912866 41 15 1.6812914e+09
4.4434896 -14.147452 2.3378334 42 12 1.6812914e+09
7.4160585 -14.046005 3.0778451 34 13 1.6812914e+09
4.4326844 -14.121681 1.2918659 45 10 1.6812914e+09
4.5184283 -8.5943384 1.1862327 1 11 1.6812914e+09
4.4424467 -14.17013 0.25860101 29 8 1.6812914e+09
4.5813742 -8.7323647 0.5149858 6 9 1.6812914e+09
6.6170826 -21.135254 -1.1627082 34 6 1.6812914e+09
2.9716814 -5.6724458 -0.11117182 13 7 1.6812914e+09
3.5928185 -11.494085 -1.4722186 9 4 1.6812914e+09
2.9794188 -5.6872158 -0.55755377 3 5 1.6812914e+09
1.3994994 -4.4846897 -0.90471506 3 2 1.6812914e+09
3.4185977 -6.5186186 -1.1616313 2 3 1.6812914e+09
1.1045437 -3.5447705 -0.98481154 39 0 1.6812914e+09
3.1946266 -6.0742698 -1.573961 13 1 1.6812914e+09
6.7443404 -21.754677 5.2418575 21 14 1.6812914e+09
10.862309 -20.647175 6.2332902 40 15 1.6812914e+09
4.3828335 -14.135338 2.3331506 42 12 1.6812914e+09
7.333787 -14.014391 3.0649769 34 13 1.6812914e+09
4.3727908 -14.111666 1.2894692 42 10 1.6812914e+09
4.4742732 -8.5866404 1.1828861 1 11 1.6812914e+09
4.3705344 -14.121841 0.25742298 42 8 1.6812914e+09
4.5389624 -8.729167 0.51380825 4 9 1.6812914e+09
3.0255511 -9.786315 -0.53678602 101 6 1.6812914e+09
2.9681723 -5.7165632 -0.11182629 21 7 1.6812914e+09
3.4980133 -11.336449 -1.4503133 13 4 1.6812914e+09
2.978091 -5.7356596 -0.56125051 25 5 1.6812914e+09
1.3808877 -4.4827518 -0.90328652 3 2 1.6812914e+09
3.3775806 -6.4982519 -1.1557585 2 3 1.6812914e+09
1.1014682 -3.5811148 -0.99386436 11 0 1.6812914e+09
3.1700869 -6.0816188 -1.5728381 13 1 1.6812914e+09
6.6548128 -21.733826 5.2311883 21 14 1.6812914e+09
10.866154 -20.830555 6.2772322 40 15 1.6812914e+09
4.3168411 -14.096243 2.3241754 39 12 1.6812914e+09
7.2712512 -14.013769 3.0592577 38 13 1.6812914e+09
4.314034 -14.095883 1.2866367 43 10 1.6812914e+09
4.435153 -8.5845747 1.1804522 1 11 1.6812914e+09
4.330708 -14.168087 0.25799018 46 8 1.6812914e+09
4.5004487 -8.7294283 0.51289237 4 9 1.6812914e+09
2.9862711 -9.7801008 -0.53586709 90 6 1.6812914e+09
2.9642386 -5.7579908 -0.11243711 19 7 1.6812914e+09
3.3781657 -11.085103 -1.4165426 14 4 1.6812914e+09
2.9683251 -5.7659416 -0.56320763 19 5 1.6812914e+09
1.3609511 -4.473455 -0.90042955 6 2 1.6812914e+09
3.3933811 -6.5846028 -1.1690701 3 3 1.6812914e+09
1.0875595 -3.5803156 -0.99257106 12 0 1.6812914e+09
3.1521986 -6.0991373 -1.5745225 13 1 1.6812914e+09
6.581727 -21.766249 5.2334342 22 14 1.6812914e+09
10.866628 -21.009916 6.319881 39 15 1.6812914e+09
4.257606 -14.078134 2.3187122 38 12 1.6812914e+09
7.22229 -14.039064 3.0592577 40 13 1.6812914e+09
4.2648039 -14.110855 1.2866367 43 10 1.6812914e+09
4.3961015 -8.5823393 1.1780182 1 11 1.6812914e+09
4.2891684 -14.209442 0.25847012 39 8 1.6812914e+09
4.4688125 -8.7428617 0.51276147 1 9 1.6812914e+09
2.9722834 -9.8573961 -0.53954279 30 6 1.6812914e+09
2.9566388 -5.7927847 -0.11291706 20 7 1.6812914e+09
3.3859081 -11.251285 -1.4363183 12 4 1.6812914e+09
2.9708557 -5.8206177 -0.56755668 12 5 1.6812914e+09
nan nan nan 0 2 1.6812914e+09
3.4007456 -6.655756 -1.1796411 4 3 1.6812914e+09
1.0778263 -3.5933437 -0.9951576 12 0 1.6812914e+09
3.1286643 -6.1057687 -1.5733994 12 1 1.6812914e+09
6.5293989 -21.86846 5.2525268 14 14 1.6812914e+09
10.703929 -20.873674 6.2675385 20 15 1.6812914e+09
4.197844 -14.057418 2.3128591 38 12 1.6812914e+09
7.1788192 -14.075119 3.0616407 38 13 1.6812914e+09
4.2318959 -14.180548 1.2916481 55 10 1.6812914e+09
4.3604937 -8.5865726 1.1764971 1 11 1.6812914e+09
6.3706326 -21.377487 0.38875234 12 8 1.6812914e+09
4.4168067 -8.7161064 0.51027554 1 9 1.6812914e+09
2.9898312 -10.042391 -0.54912591 14 6 1.6812914e+09
2.9522219 -5.8342838 -0.11352789 21 7 1.6812914e+09
3.4151363 -11.493773 -1.4658296 11 4 1.6812914e+09
2.9640319 -5.8576093 -0.57016617 11 5 1.6812914e+09
nan nan nan 0 2 1.6812914e+09
3.4031861 -6.7182317 -1.188646 4 3 1.6812914e+09
1.0707538 -3.6156108 -1.0003306 12 0 1.6812914e+09
3.107332 -6.1166525 -1.5733994 12 1 1.6812914e+09
6.4791927 -21.979916 5.2738643 18 14 1.6812914e+09
10.876258 -21.393087 6.4122887 43 15 1.6812914e+09
4.1480513 -14.069615 2.3124688 41 12 1.6812914e+09
7.1252112 -14.091332 3.0597343 36 13 1.6812914e+09
4.173224 -14.164176 1.2888155 43 10 1.6812914e+09
4.3182087 -8.5773668 1.1731504 1 11 1.6812914e+09
6.2889194 -21.375614 0.38831604 89 8 1.6812914e+09
4.391963 -8.7426214 0.51092976 1 9 1.6812914e+09
2.9962728 -10.194092 -0.55687118 14 6 1.6812914e+09
2.9509184 -5.8825226 -0.11426962 22 7 1.6812914e+09
3.3812776 -11.527055 -1.4685677 12 4 1.6812914e+09
2.9614592 -5.9035258 -0.57364541 22 5 1.6812914e+09
1.7686538 -6.0421491 -1.214699 1 2 1.6812914e+09
nan nan nan 0 3 1.6812914e+09
1.0615094 -3.6309175 -1.0035638 12 0 1.6812914e+09
3.0848651 -6.1252875 -1.5728381 12 1 1.6812914e+09
6.3983459 -21.988365 5.2704954 32 14 1.6812914e+09
10.872197 -21.571089 6.4542918 41 15 1.6812914e+09
4.1058111 -14.10772 2.316371 45 12 1.6812914e+09
7.0198603 -14.004245 3.035428 38 13 1.6812914e+09
4.1042895 -14.111695 1.2827146 43 10 1.6812914e+09
4.280478 -8.5768499 1.1710207 7 11 1.6812914e+09
6.2079935 -21.375832 0.38792333 89 8 1.6812914e+09
4.3335695 -8.7020416 0.50765878 1 9 1.6812914e+09
3.0051668 -10.357946 -0.56527281 14 6 1.6812914e+09
2.9459705 -5.9241114 -0.11488046 22 7 1.6812914e+09
3.3341217 -11.514951 -1.4655253 14 4 1.6812914e+09
2.9597125 -5.9517245 -0.57734215 6 5 1.6812914e+09
1.8135698 -6.27701 -1.260887 3 2 1.6812914e+09
3.9114733 -7.8555293 -1.3859706 8 3 1.6812914e+09
1.0561819 -3.6601269 -1.0106766 12 0 1.6812914e+09
3.0667341 -6.1425548 -1.5745225 12 1 1.6812914e+09
6.3148298 -21.987148 5.2648797 35 14 1.6812914e+09
10.876742 -21.768763 6.502111 45 15 1.6812914e+09
4.0667629 -14.157569 2.3222244 45 12 1.6812914e+09
6.9512644 -13.989109 3.0268495 43 13 1.6812914e+09
4.0721779 -14.185783 1.2881619 35 10 1.6812914e+09
4.2454023 -8.5776577 1.1691954 7 11 1.6812914e+09
6.1257653 -21.370939 0.38744339 89 8 1.6812914e+09
4.2965302 -8.7036867 0.50687373 1 9 1.6812914e+09
3.0074582 -10.502785 -0.57262427 16 6 1.6812914e+09
2.9418743 -5.9679775 -0.11553492 22 7 1.6812914e+09
2.8121054 -9.839613 -1.2504275 12 4 1.6812914e+09
2.9488435 -5.9821177 -0.57929927 14 5 1.6812914e+09
1.2841288 -4.498662 -0.90090573 2 2 1.6812914e+09
nan nan nan 0 3 1.6812914e+09
1.0420785 -3.6591456 -1.0093833 13 0 1.6812914e+09
3.045274 -6.1532226 -1.5745225 11 1 1.6812914e+09
6.2345734 -21.982189 5.2587032 33 14 1.6812914e+09
10.763733 -21.722488 6.4775553 48 15 1.6812914e+09
4.0157509 -14.156722 2.3198829 40 12 1.6812914e+09
6.8983235 -13.998877 3.0239897 46 13 1.6812914e+09
4.0463843 -14.283781 1.2957879 45 10 1.6812914e+09
4.1979303 -8.5567875 1.1643275 7 11 1.6812914e+09
6.0514603 -21.37911 0.38722524 87 8 1.6812914e+09
4.2467685 -8.675292 0.50438774 1 9 1.6812914e+09
3.0133483 -10.656848 -0.58050078 13 6 1.6812914e+09
2.9408045 -6.0186219 -0.11632028 25 7 1.6812914e+09
2.7740722 -9.8297768 -1.2479936 42 4 1.6812914e+09
2.9541814 -6.0433092 -0.5843007 9 5 1.6812914e+09
2.2419529 -7.9642606 -1.5984887 2 2 1.6812914e+09
3.6264534 -7.4097137 -1.3025775 8 3 1.6812914e+09
1.0214722 -3.6348588 -1.0016239 19 0 1.6812914e+09
3.0194783 -6.1523552 -1.5717149 12 1 1.6812914e+09
6.1492701 -21.973318 5.2514033 32 14 1.6812914e+09
10.4631 -21.302591 6.3412061 20 15 1.6812914e+09
3.9576612 -14.13974 2.31481 35 12 1.6812914e+09
6.8494167 -14.022871 3.0239897 47 13 1.6812914e+09
3.9728427 -14.20358 1.2872903 46 10 1.6812914e+09
4.1669497 -8.5691586 1.1640232 7 11 1.6812914e+09
5.9714198 -21.380844 0.3868762 90 8 1.6812914e+09
4.2110062 -8.6788359 0.50373358 1 9 1.6812914e+09
3.0116692 -10.794757 -0.58745843 16 6 1.6812914e+09
2.9350522 -6.0603356 -0.11693112 26 7 1.6812914e+09
2.7437339 -9.8537436 -1.2498189 14 4 1.6812914e+09
2.9461439 -6.0832253 -0.58712763 9 5 1.6812914e+09
1.2074078 -4.3443418 -0.86805028 2 2 1.6812914e+09
3.7980084 -7.8287625 -1.374225 8 3 1.6812914e+09
1.0319672 -3.7221899 -1.0249023 14 0 1.6812914e+09
3.0011756 -6.172142 -1.573961 12 1 1.6812914e+09
6.0718837 -21.9923 5.2508416 34 14 1.6812914e+09
10.360125 -21.280365 6.3237586 28 15 1.6812914e+09
3.8885705 -14.082058 2.3031034 41 12 1.6812914e+09
6.8121963 -14.070989 3.0292323 43 13 1.6812914e+09
3.9141397 -14.194036 1.2851114 42 10 1.6812914e+09
4.1208363 -8.5501299 1.1594597 8 11 1.6812914e+09
5.8857169 -21.376076 0.38639626 90 8 1.6812914e+09
4.1542668 -8.6424713 0.50072426 1 9 1.6812914e+09
3.0217128 -10.986267 -0.59730411 16 6 1.6812914e+09
2.9279616 -6.0998297 -0.11749832 25 7 1.6812914e+09
3.1815569 -11.59149 -1.4694805 11 4 1.6812914e+09
2.9507935 -6.1473417 -0.59234655 3 5 1.6812914e+09
1.2350053 -4.5047607 -0.89947718 2 2 1.6812914e+09
3.7556617 -7.8108263 -1.3687439 8 3 1.6812914e+09
1.0253282 -3.7490664 -1.0313686 15 0 1.6812914e+09
2.9785533 -6.1803861 -1.5733994 12 1 1.6812914e+09
5.9835625 -21.9862 5.2441034 34 14 1.6812914e+09
10.267364 -21.287743 6.314712 28 15 1.6812914e+09
3.8362825 -14.093832 2.3027132 47 12 1.6812914e+09
6.7308435 -14.033913 3.0158877 14 13 1.6812914e+09
3.8809037 -14.267693 1.2905587 40 10 1.6812914e+09
4.0909653 -8.5644617 1.1594597 6 11 1.6812914e+09
5.8064804 -21.379606 0.38609084 88 8 1.6812914e+09
4.103652 -8.6141052 0.49823827 1 9 1.6812914e+09
3.0140502 -11.109997 -0.60347402 12 6 1.6812914e+09
2.9281578 -6.1551428 -0.11837094 25 7 1.6812914e+09
3.1371872 -11.588154 -1.4676549 15 4 1.6812914e+09
2.9421744 -6.1845837 -0.59495598 8 5 1.6812914e+09
1.9140445 -7.0821962 -1.4165933 8 2 1.6812914e+09
nan nan nan 0 3 1.6812914e+09
0.97958541 -3.6313648 -0.99774408 30 0 1.6812914e+09
2.9569616 -6.1907458 -1.5733994 12 1 1.6812914e+09
5.9055667 -21.987099 5.2396111 33 14 1.6812914e+09
10.296782 -21.530809 6.3767476 16 15 1.6812914e+09
3.7927265 -14.118401 2.3046641 47 12 1.6812914e+09
10.308949 -21.672556 4.6539421 12 13 1.6812914e+09
3.8465571 -14.338884 1.2957879 42 10 1.6812914e+09
4.0195956 -8.4912395 1.1475942 1 11 1.6812914e+09
5.7290821 -21.374599 0.38565454 89 8 1.6812914e+09
3.4538815 -7.3141375 0.42208946 8 9 1.6812914e+09
3.0294621 -11.315279 -0.61410737 22 6 1.6812914e+09
2.9215987 -6.1969695 -0.11898177 26 7 1.6812914e+09
3.1000226 -11.603288 -1.4682635 14 4 1.6812914e+09
2.9408004 -6.2348385 -0.59887016 1 5 1.6812914e+09
1.8665781 -7.0034561 -1.3994514 32 2 1.6812914e+09
nan nan nan 0 3 1.6812914e+09
1.0090455 -3.7934775 -1.0417147 21 0 1.6812914e+09
2.9353719 -6.1983161 -1.5728381 12 1 1.6812914e+09
5.8225465 -21.98403 5.2339959 34 14 1.6812914e+09
10.285716 -21.70191 6.4168119 27 15 1.6812914e+09
3.7630141 -14.205555 2.3167613 49 12 1.6812914e+09
6.607944 -14.021691 3.0034964 7 13 1.6812914e+09
5.6533651 -21.360199 1.930064 60 10 1.6812914e+09
4.0236907 -8.5770912 1.15733 9 11 1.6812914e+09
5.6506047 -21.379967 0.38539276 89 8 1.6812914e+09
3.9622869 -8.4655085 0.48803276 1 9 1.6812914e+09
3.0256119 -11.460966 -0.62145883 16 6 1.6812914e+09
2.9200807 -6.250145 -0.11981076 27 7 1.6812914e+09
3.0588689 -11.611639 -1.4679593 14 4 1.6812914e+09
2.9263742 -6.2636213 -0.60060978 33 5 1.6812914e+09
1.8390042 -6.9980607 -1.3970705 23 2 1.6812914e+09
3.3760862 -7.2147584 -1.257553 6 3 1.6812914e+09
0.98356611 -3.7502527 -1.0287821 30 0 1.6812914e+09
2.9167786 -6.2178526 -1.5750841 11 1 1.6812914e+09
5.7414656 -21.98772 5.2300653 34 14 1.6812914e+09
10.239687 -21.801071 6.4355516 25 15 1.6812914e+09
3.7171471 -14.232939 2.3191025 48 12 1.6812914e+09
6.5423331 -14.009099 2.9958708 39 13 1.6812914e+09
5.5700126 -21.361496 1.9283209 88 10 1.6812914e+09
3.9811602 -8.5640879 1.153679 9 11 1.6812914e+09
5.5640192 -21.369085 0.38482553 89 8 1.6812914e+09
3.4088128 -7.3545165 0.42300534 4 9 1.6812914e+09
3.0269196 -11.638701 -0.63051683 18 6 1.6812914e+09
2.9129686 -6.2920465 -0.1204216 26 7 1.6812914e+09
3.0150437 -11.617967 -1.4673508 11 4 1.6812914e+09
2.9285922 -6.3257637 -0.60561126 33 5 1.6812914e+09
1.8194846 -7.0234451 -1.4008799 9 2 1.6812914e+09
3.8105583 -8.2163353 -1.4306036 6 3 1.6812914e+09
1.0446905 -4.0412765 -1.1083171 86 0 1.6812914e+09
2.8929999 -6.2235794 -1.573961 11 1 1.6812914e+09
5.657197 -21.994459 5.226696 25 14 1.6812914e+09
10.212708 -21.952307 6.4691548 1 15 1.6812914e+09
3.6735647 -14.279949 2.3245656 46 12 1.6812914e+09
6.4806337 -14.010712 2.9911048 36 13 1.6812914e+09
5.4867363 -21.34704 1.9252704 90 10 1.6812914e+09
3.9439671 -8.5621595 1.1515493 9 11 1.6812914e+09
5.4850454 -21.371429 0.38452011 87 8 1.6812914e+09
3.8588355 -8.4006519 0.48266834 1 9 1.6812914e+09
3.0079603 -11.733841 -0.63511145 8 6 1.6812914e+09
2.9108181 -6.3453307 -0.12125058 27 7 1.6812914e+09
2.7986991 -10.940847 -1.3803381 4 4 1.6812914e+09
2.921052 -6.3676305 -0.60865563 28 5 1.6812914e+09
nan nan nan 0 2 1.6812914e+09
nan nan nan 0 3 1.6812914e+09
1.0335538 -4.056601 -1.1115503 90 0 1.6812914e+09
2.868196 -6.2270041 -1.5722765 11 1 1.6812914e+09
5.5776429 -21.987123 5.2205195 30 14 1.6812914e+09
10.114559 -21.931232 6.4529996 27 15 1.6812914e+09
3.6201203 -14.268116 2.3206635 39 12 1.6812914e+09
6.4372072 -14.038817 2.9925346 42 13 1.6812914e+09
5.4085197 -21.351572 1.923963 88 10 1.6812914e+09
3.9027102 -8.5510483 1.1482027 8 11 1.6812914e+09
5.4116921 -21.379808 0.38434559 86 8 1.6812914e+09
3.4011376 -7.470685 0.42836976 3 9 1.6812914e+09
2.9830997 -11.799423 -0.63813084 12 6 1.6812914e+09
2.9072955 -6.3964014 -0.12203594 27 7 1.6812914e+09
2.8303432 -11.219555 -1.414413 8 4 1.6812914e+09
2.9133415 -6.4067459 -0.6114825 23 5 1.6812914e+09
1.9816089 -7.876183 -1.5689664 7 2 1.6812914e+09
3.7182777 -8.1663513 -1.417292 4 3 1.6812914e+09
1.0199745 -4.0625262 -1.1121969 90 0 1.6812914e+09
2.8495569 -6.2409115 -1.5733994 11 1 1.6812914e+09
5.4990878 -21.999369 5.2188344 34 14 1.6812914e+09
10.021875 -21.931261 6.4426603 26 15 1.6812914e+09
3.584661 -14.338163 2.3300288 34 12 1.6812914e+09
6.391211 -14.067904 2.9939644 46 13 1.6812914e+09
5.332859 -21.350063 1.92222 89 10 1.6812914e+09
3.8707905 -8.5600977 1.1475942 9 11 1.6812914e+09
5.3309827 -21.374315 0.38390929 86 8 1.6812914e+09
3.4089558 -7.5575933 0.43268749 3 9 1.6812914e+09
2.9654157 -11.904246 -0.64325058 8 6 1.6812914e+09
2.9013956 -6.4429679 -0.12273404 27 7 1.6812914e+09
2.8695273 -11.544845 -1.4542685 11 4 1.6812914e+09
2.9123704 -6.4673262 -0.61626655 19 5 1.6812914e+09
1.9546937 -7.8854337 -1.5694425 6 2 1.6812914e+09
nan nan nan 0 3 1.6812914e+09
1.0046296 -4.0613732 -1.1109037 88 0 1.6812914e+09
2.8256588 -6.249095 -1.5728381 11 1 1.6812914e+09
5.4152746 -21.990046 5.2120967 34 14 1.6812914e+09
9.7947874 -21.633932 6.3450832 30 15 1.6812914e+09
3.5481658 -14.405737 2.339004 39 12 1.6812914e+09
6.3138428 -14.027475 2.9806197 36 13 1.6812914e+09
5.2492208 -21.347698 1.9202589 89 10 1.6812914e+09
3.8358088 -8.5622377 1.146073 9 11 1.6812914e+09
5.2478395 -21.374289 0.38356024 89 8 1.6812914e+09
9.8240128 -21.973051 1.2595955 7 9 1.6812914e+09
2.9615786 -12.077496 -0.65204602 26 6 1.6812914e+09
2.8972454 -6.4941339 -0.1235194 26 7 1.6812914e+09
2.8466437 -11.634828 -1.4643084 13 4 1.6812914e+09
2.9080682 -6.5183811 -0.62018073 12 5 1.6812914e+09
1.0534844 -4.3109789 -0.85424149 6 2 1.6812914e+09
3.4029677 -7.61515 -1.3170636 2 3 1.6812914e+09
0.991588 -4.0695486 -1.1121969 82 0 1.6812914e+09
2.8038282 -6.2589202 -1.5728381 11 1 1.6812914e+09
5.3300514 -21.990805 5.2076039 34 14 1.6812914e+09
9.672925 -21.574936 6.3172965 61 15 1.6812914e+09
3.502902 -14.449845 2.3440769 36 12 1.6812914e+09
6.2613873 -14.048282 2.9801433 43 13 1.6812914e+09
5.1699829 -21.346527 1.9185157 89 10 1.6812914e+09
3.7998514 -8.5619688 1.1442477 8 11 1.6812914e+09
5.169086 -21.375469 0.38325483 90 8 1.6812914e+09
9.7341032 -21.977535 1.2578946 7 9 1.6812914e+09
2.9217453 -12.097466 -0.65257114 2 6 1.6812914e+09
2.8958089 -6.552206 -0.12443565 27 7 1.6812914e+09
2.8089182 -11.656756 -1.4658296 13 4 1.6812914e+09
2.9064698 -6.5763164 -0.62474728 7 5 1.6812914e+09
1.0326965 -4.2907667 -0.84947985 9 2 1.6812914e+09
nan nan nan 0 3 1.6812914e+09
0.97737658 -4.0729847 -1.1121969 80 0 1.6812914e+09
2.779984 -6.2642174 -1.5717149 11 1 1.6812914e+09
5.2491765 -21.975185 5.1997428 34 14 1.6812914e+09
9.6866856 -21.798883 6.3735161 25 15 1.6812914e+09
3.857007 -16.145065 2.6176243 1 12 1.6812914e+09
6.1899595 -14.012854 2.9682283 42 13 1.6812914e+09
5.0942831 -21.3596 1.91808 89 10 1.6812914e+09
3.7629435 -8.5592842 1.142118 7 11 1.6812914e+09
5.0918021 -21.365747 0.38277486 90 8 1.6812914e+09
9.6551456 -21.995979 1.2571095 7 9 1.6812914e+09
4.8891988 -20.547121 -1.1087539 13 6 1.6812914e+09
2.892998 -6.6080575 -0.12530828 26 7 1.6812914e+09
2.7702475 -11.666007 -1.4658296 12 4 1.6812914e+09
2.902658 -6.6269698 -0.62866145 4 5 1.6812914e+09
1.0137576 -4.277627 -0.8461467 9 2 1.6812914e+09
3.7071531 -8.4525862 -1.4580097 7 3 1.6812914e+09
0.9631533 -4.0763717 -1.1121969 80 0 1.6812914e+09
2.7611606 -6.2778602 -1.5728381 11 1 1.6812914e+09
5.1400995 -21.855827 5.1671743 15 14 1.6812914e+09
9.6514177 -21.92539 6.4006567 26 15 1.6812914e+09
3.8373606 -16.314678 2.6429887 26 12 1.6812914e+09
6.1341166 -14.018639 2.9648921 35 13 1.6812914e+09
5.0182981 -21.354555 1.916119 90 10 1.6812914e+09
nan nan nan 0 11 1.6812914e+09
5.0166197 -21.380957 0.38273126 90 8 1.6812914e+09
9.5713348 -22.013521 1.2561936 7 9 1.6812914e+09
4.8128924 -20.544617 -1.1077037 15 6 1.6812914e+09
2.8899994 -6.6611714 -0.12613726 23 7 1.6812914e+09
2.7255571 -11.658692 -1.4636999 11 4 1.6812914e+09
2.911274 -6.7101536 -0.63562 2 5 1.6812914e+09
0.99659294 -4.2715788 -0.84424198 21 2 1.6812914e+09
3.5801136 -8.2413216 -1.4192497 1 3 1.6812914e+09
0.95072329 -4.0842481 -1.1134901 74 0 1.6812914e+09
2.738255 -6.2852273 -1.5722765 11 1 1.6812914e+09
5.0846491 -21.963827 5.1885123 29 14 1.6812914e+09
9.5526152 -21.908037 6.3857942 26 15 1.6812914e+09
3.4624875 -14.954275 2.4201708 16 12 1.6812914e+09
6.0822148 -14.033212 2.9634626 32 13 1.6812914e+09
4.9426041 -21.367088 1.9156833 90 10 1.6812914e+09
nan nan nan 0 11 1.6812914e+09
4.9397063 -21.388597 0.38255674 89 8 1.6812914e+09
9.475666 -22.003239 1.2537078 8 9 1.6812914e+09
4.7461958 -20.583187 -1.1088852 15 6 1.6812914e+09
nan nan nan 0 7 1.6812914e+09
2.6826196 -11.658461 -1.4624829 9 4 1.6812914e+09
2.9124513 -6.7774644 -0.64105636 1 5 1.6812914e+09
0.97893476 -4.2630706 -0.84186119 42 2 1.6812914e+09
2.8996263 -6.7412696 -1.1581076 2 3 1.6812914e+09
0.93538421 -4.0828333 -1.1121969 71 0 1.6812914e+09
2.7172658 -6.2969832 -1.5728381 11 1 1.6812914e+09
5.0068679 -21.97669 5.1873894 32 14 1.6812914e+09
9.4578819 -21.899124 6.3735161 28 15 1.6812914e+09
3.4086211 -14.959046 2.4189999 55 12 1.6812914e+09
6.0409427 -14.072394 2.9672751 40 13 1.6812914e+09
3.4825923 -15.296203 1.3694346 8 10 1.6812914e+09
3.4193609 -8.005044 1.0630155 4 11 1.6812914e+09
4.8578167 -21.374018 0.38198951 90 8 1.6812914e+09
3.5135269 -8.2450142 0.46788341 4 9 1.6812914e+09
4.6776319 -20.614239 -1.1096729 15 6 1.6812914e+09
3.6531465 -8.5804691 -0.16217647 1 7 1.6812914e+09
2.6462886 -11.687115 -1.4649168 7 4 1.6812914e+09
nan nan nan 0 5 1.6812914e+09
0.96404791 -4.2664618 -0.84186119 12 2 1.6812914e+09
3.5486584 -8.3274317 -1.4298205 1 3 1.6812914e+09
0.92112672 -4.0860734 -1.1121969 57 0 1.6812914e+09
2.6952686 -6.3064299 -1.5728381 11 1 1.6812914e+09
4.926928 -21.979771 5.18402 34 14 1.6812914e+09
9.363327 -21.88982 6.3612385 26 15 1.6812914e+09
3.4173963 -15.24314 2.4630954 60 12 1.6812914e+09
5.9821754 -14.070814 2.9625094 36 13 1.6812914e+09
3.4199271 -15.266951 1.3657305 18 10 1.6812914e+09
3.3952692 -8.0260706 1.0642325 6 11 1.6812914e+09
4.7853589 -21.400604 0.38216403 36 8 1.6812914e+09
nan nan nan 0 9 1.6812914e+09
4.636096 -20.76689 -1.1170243 16 6 1.6812914e+09
3.611506 -8.5655346 -0.16165291 2 7 1.6812914e+09
2.6362107 -11.834343 -1.4822586 3 4 1.6812914e+09
nan nan nan 0 5 1.6812914e+09
0.9555285 -4.298552 -0.84757513 4 2 1.6812914e+09
3.5032279 -8.3011026 -1.4231647 6 3 1.6812914e+09
0.90842378 -4.0963378 -1.1141368 9 0 1.6812914e+09
2.6713367 -6.3113141 -1.5717149 11 1 1.6812914e+09
4.84162 -21.976269 5.178966 34 14 1.6812914e+09
3.6833158 -8.706234 2.5201981 6 15 1.6812914e+09
3.3896527 -15.383375 2.483777 57 12 1.6812914e+09
3.6567042 -8.693903 1.8248791 7 13 1.6812914e+09
3.3532438 -15.230737 1.3613727 20 10 1.6812914e+09
3.3739519 -8.0538902 1.0663621 9 11 1.6812914e+09
3.4803023 -15.834513 0.28237993 15 8 1.6812914e+09
nan nan nan 0 9 1.6812914e+09
4.6374998 -21.137341 -1.1360593 43 6 1.6812914e+09
3.5935805 -8.611002 -0.16226374 3 7 1.6812914e+09
1.875839 -8.5665569 -1.0709257 2 4 1.6812914e+09
3.549798 -8.5062656 -0.80175537 2 5 1.6812914e+09
0.96668023 -4.421752 -0.87138343 2 2 1.6812914e+09
3.4789965 -8.3246698 -1.4251223 8 3 1.6812914e+09
0.89545667 -4.1090784 -1.1167233 4 0 1.6812914e+09
2.6576149 -6.3435259 -1.5773302 11 1 1.6812914e+09
4.7692332 -21.994585 5.1795278 32 14 1.6812914e+09
3.6432078 -8.6916771 2.5124435 34 15 1.6812914e+09
3.3909309 -15.635862 2.5227997 50 12 1.6812914e+09
3.6278543 -8.7059813 1.8248791 42 13 1.6812914e+09
3.3490436 -15.468726 1.3816364 49 10 1.6812914e+09
3.3705702 -8.1251984 1.0742723 12 11 1.6812914e+09
3.4108708 -15.767788 0.28098375 19 8 1.6812914e+09
3.5483806 -8.5742626 0.48450008 6 9 1.6812914e+09
4.5689607 -21.159924 -1.136453 70 6 1.6812914e+09
3.5635006 -8.6234941 -0.16226374 3 7 1.6812914e+09
2.582253 -11.98588 -1.4989918 1 4 1.6812914e+09
3.5387187 -8.5594091 -0.80566955 2 5 1.6812914e+09
0.96359652 -4.4826903 -0.88281137 3 2 1.6812914e+09
3.3941441 -8.2021809 -1.4020227 9 3 1.6812914e+09
0.88312769 -4.1216254 -1.1193098 4 0 1.6812914e+09
2.6374998 -6.3545532 -1.5778917 9 1 1.6812914e+09
4.6837974 -21.970596 5.169982 33 14 1.6812914e+09
3.6063573 -8.6887312 2.50792 36 15 1.6812914e+09
3.3702993 -15.807001 2.5485544 38 12 1.6812914e+09
3.5880706 -8.6959095 1.8201131 38 13 1.6812914e+09
3.3578928 -15.762309 1.4069116 57 10 1.6812914e+09
3.3714511 -8.2080555 1.0837038 18 11 1.6812914e+09
3.3537309 -15.769816 0.28080922 21 8 1.6812914e+09
3.5222204 -8.5958357 0.48502347 7 9 1.6812914e+09
4.4940343 -21.170856 -1.1361905 69 6 1.6812914e+09
3.5267437 -8.6196899 -0.16195832 3 7 1.6812914e+09
2.4869635 -11.742345 -1.4673508 7 4 1.6812914e+09
3.5158212 -8.5930643 -0.80762666 7 5 1.6812914e+09
1.6550066 -7.8383842 -1.5475389 8 2 1.6812914e+09
3.384239 -8.2596655 -1.4098531 14 3 1.6812914e+09
0.87022537 -4.131773 -1.1212497 4 0 1.6812914e+09
2.6206818 -6.3799472 -1.5818224 6 1 1.6812914e+09
4.602582 -21.965351 5.164928 33 14 1.6812914e+09
3.5732491 -8.6945667 2.5059814 38 15 1.6812914e+09
3.3839502 -16.147369 2.601625 36 12 1.6812914e+09
3.5558357 -8.7038383 1.8191599 38 13 1.6812914e+09
3.3454635 -15.991472 1.4263037 63 10 1.6812914e+09
3.3652425 -8.274929 1.0910056 23 11 1.6812914e+09
3.3071456 -15.835835 0.2817691 26 8 1.6812914e+09
3.5094767 -8.6549511 0.48764026 7 9 1.6812914e+09
4.4159002 -21.184744 -1.1360593 80 6 1.6812914e+09
3.4966338 -8.6319475 -0.16195832 3 7 1.6812914e+09
2.4267426 -11.668778 -1.4570066 9 4 1.6812914e+09
3.4436762 -8.5014296 -0.79784119 11 5 1.6812914e+09
1.6211601 -7.8128724 -1.5413487 9 2 1.6812914e+09
3.3656094 -8.2965918 -1.4141599 21 3 1.6812914e+09
0.85433197 -4.1276903 -1.1193098 4 0 1.6812914e+09
2.6397636 -6.4905767 -1.6070911 1 1 1.6812914e+09
4.5220437 -21.982073 5.164928 34 14 1.6812914e+09
3.539536 -8.7031317 2.5046892 39 15 1.6812914e+09
3.4177544 -16.611969 2.674597 40 12 1.6812914e+09
3.5174644 -8.7008886 1.8158237 38 13 1.6812914e+09
3.3372369 -16.234806 1.4470031 43 10 1.6812914e+09
3.3706713 -8.3717766 1.1022625 28 11 1.6812914e+09
3.3216524 -16.187643 0.28783381 69 8 1.6812914e+09
3.4466522 -8.5860739 0.48306084 23 9 1.6812914e+09
4.3354154 -21.168232 -1.1343527 77 6 1.6812914e+09
3.437604 -8.5721931 -0.16060576 12 7 1.6812914e+09
1.9183754 -9.3869333 -1.1704122 8 4 1.6812914e+09
3.4566734 -8.61971 -0.80784404 8 5 1.6812914e+09
1.5958371 -7.8281031 -1.5432534 8 2 1.6812914e+09
3.356899 -8.3586884 -1.4227732 8 3 1.6812914e+09
0.84231955 -4.1424804 -1.1225429 3 0 1.6812914e+09
2.6015971 -6.4613447 -1.5975451 4 1 1.6812914e+09
4.4452624 -21.977846 5.1604362 29 14 1.6812914e+09
3.5088487 -8.7103415 2.5033967 40 15 1.6812914e+09
3.419903 -16.906401 2.720253 34 12 1.6812914e+09
3.4876788 -8.7102289 1.8153472 38 13 1.6812914e+09
3.3756354 -16.71752 1.4890559 40 10 1.6812914e+09
3.369945 -8.4549332 1.111694 28 11 1.6812914e+09
3.3089619 -16.401943 0.29145515 36 8 1.6812914e+09
3.4043086 -8.562664 0.48109826 43 9 1.6812914e+09
4.2509093 -21.111515 -1.1305456 55 6 1.6812914e+09
3.4058142 -8.5794964 -0.16051851 53 7 1.6812914e+09
1.880888 -9.3616161 -1.1664572 86 4 1.6812914e+09
3.413343 -8.5940981 -0.8043648 36 5 1.6812914e+09
1.5680208 -7.8312187 -1.5427772 9 2 1.6812914e+09
3.3414016 -8.4047651 -1.428646 9 3 1.6812914e+09
0.83918148 -4.2022367 -1.138062 2 0 1.6812914e+09
2.5593662 -6.4179053 -1.58463 7 1 1.6812914e+09
4.3002 -21.649145 5.079576 42 14 1.6812914e+09
3.4685698 -8.6978664 2.4962883 39 15 1.6812914e+09
3.4204993 -17.218569 2.7686408 27 12 1.6812914e+09
3.4500091 -8.7041006 1.8115343 36 13 1.6812914e+09
3.3948066 -17.104828 1.5226108 34 10 1.6812914e+09
3.3714149 -8.5451117 1.1220381 30 11 1.6812914e+09
4.2377625 -21.393436 0.38006976 1 8 1.6812914e+09
3.3743985 -8.5744963 0.48109826 57 9 1.6812914e+09
4.1839676 -21.160515 -1.1323835 79 6 1.6812914e+09
3.3712685 -8.5797014 -0.16030034 57 7 1.6812914e+09
1.846759 -9.3608208 -1.1655444 40 4 1.6812914e+09
3.3772612 -8.5949631 -0.80327755 63 5 1.6812914e+09
1.537365 -7.819787 -1.539444 9 2 1.6812914e+09
3.3364873 -8.4784012 -1.439217 22 3 1.6812914e+09
0.83285409 -4.2477999 -1.1497012 2 0 1.6812914e+09
2.534035 -6.4227118 -1.5835069 7 1 1.6812914e+09
4.2162151 -21.620983 5.0694685 70 14 1.6812914e+09
3.433748 -8.6986914 2.4930575 36 15 1.6812914e+09
3.4113986 -17.492168 2.8107851 32 12 1.6812914e+09
3.4169133 -8.709239 1.8101046 38 13 1.6812914e+09
3.3525438 -17.222275 1.53198 25 10 1.6812914e+09
3.3704877 -8.6307774 1.1317738 45 11 1.6812914e+09
4.153605 -21.379381 0.3795462 91 8 1.6812914e+09
3.3710618 -8.6589117 0.48515427 45 9 1.6812914e+09
4.1016312 -21.151197 -1.1310707 69 6 1.6812914e+09
3.3676076 -8.6589642 -0.16156565 41 7 1.6812914e+09
1.8180887 -9.3967638 -1.1691954 4 4 1.6812914e+09
3.3598926 -8.6391897 -0.80632192 30 5 1.6812914e+09
1.5105239 -7.8275156 -1.5399203 9 2 1.6812914e+09
3.3409703 -8.5774088 -1.4540946 18 3 1.6812914e+09
0.83122838 -4.3194575 -1.1684535 2 0 1.6812914e+09
1.6141392 -4.1379333 -1.0158029 1 1 1.6812914e+09
4.1620941 -21.767895 5.1003523 34 14 1.6812914e+09
3.3965654 -8.6977243 2.4891803 35 15 1.6812914e+09
3.4427567 -18.0042 2.8911712 28 12 1.6812914e+09
3.3885255 -8.7308531 1.812011 36 13 1.6812914e+09
4.0813346 -21.36566 1.8999952 90 10 1.6812914e+09
3.3466101 -8.6586905 1.1339035 55 11 1.6812914e+09
4.0766125 -21.38147 0.37932801 90 8 1.6812914e+09
3.3417149 -8.6729565 0.48528513 46 9 1.6812914e+09
4.0291743 -21.172743 -1.1314646 59 6 1.6812914e+09
3.3463523 -8.6939907 -0.16200197 45 7 1.6812914e+09
2.2319732 -11.758113 -1.4630915 6 4 1.6812914e+09
3.3440483 -8.6880465 -0.80980116 42 5 1.6812914e+09
1.4827355 -7.8303289 -1.539444 9 2 1.6812914e+09
nan nan nan 0 3 1.6812914e+09
nan nan nan 0 0 1.6812914e+09
1.5750515 -4.0799341 -1.0000801 4 1 1.6812914e+09
4.1172986 -21.927628 5.1346054 27 14 1.6812914e+09
3.5281813 -9.1233177 2.6080821 26 15 1.6812914e+09
3.4376953 -18.306755 2.9379983 39 12 1.6812914e+09
3.5076447 -9.1268263 1.8920789 33 13 1.6812914e+09
4.0012269 -21.350401 1.8973806 74 10 1.6812914e+09
3.3447697 -8.7444696 1.1436392 32 11 1.6812914e+09
4.0038471 -21.385046 0.37915352 90 8 1.6812914e+09
3.4439173 -9.0268164 0.50451857 33 9 1.6812914e+09
3.9534402 -21.15654 -1.1298892 62 6 1.6812914e+09
3.5030718 -9.1960659 -0.17116447 36 7 1.6812914e+09
2.183883 -11.71666 -1.4570066 7 4 1.6812914e+09
nan nan nan 0 5 1.6812914e+09
1.4567364 -7.8426967 -1.5408727 9 2 1.6812914e+09
nan nan nan 0 3 1.6812914e+09
nan nan nan 0 0 1.6812914e+09
1.5597689 -4.080586 -0.99895704 4 1 1.6812914e+09
4.0424957 -21.951452 5.1368518 27 14 1.6812914e+09
3.3848195 -8.8446712 2.5247216 6 15 1.6812914e+09
3.423393 -18.588215 2.9813132 39 12 1.6812914e+09
3.3560965 -8.8248119 1.8267853 6 13 1.6812914e+09
3.4862752 -18.948431 1.6825417 28 10 1.6812914e+09
3.3476484 -8.8442631 1.1552002 19 11 1.6812914e+09
3.9264677 -21.384138 0.37889171 89 8 1.6812914e+09
3.3558824 -8.889327 0.49614483 12 9 1.6812914e+09
3.8782165 -21.162846 -1.1294955 60 6 1.6812914e+09
3.4665365 -9.1965456 -0.17094631 25 7 1.6812914e+09
2.1438625 -11.729095 -1.4576151 7 4 1.6812914e+09
3.4706519 -9.2074823 -0.85611904 41 5 1.6812914e+09
1.428473 -7.8429046 -1.5399203 9 2 1.6812914e+09
3.3976617 -8.9999371 -1.5198694 26 3 1.6812914e+09
1.0520304 -5.7964401 -1.5680684 13 0 1.6812914e+09
1.5370274 -4.0657749 -0.99390328 6 1 1.6812914e+09
3.960655 -21.936661 5.1301136 26 14 1.6812914e+09
3.3445048 -8.8315935 2.5176132 4 15 1.6812914e+09
3.4321651 -19.008307 3.0468709 34 12 1.6812914e+09
3.3226755 -8.8295841 1.8253555 7 13 1.6812914e+09
3.4278388 -19.022358 1.6879889 46 10 1.6812914e+09
3.3184984 -8.8605413 1.1558087 19 11 1.6812914e+09
3.8471799 -21.393467 0.37880448 90 8 1.6812914e+09
3.3276503 -8.9132605 0.49679902 12 9 1.6812914e+09
3.7993019 -21.169544 -1.1291016 56 6 1.6812914e+09
3.4291658 -9.19454 -0.17068452 36 7 1.6812914e+09
2.1017325 -11.741758 -1.4582236 7 4 1.6812914e+09
3.4332623 -9.2055426 -0.85481429 35 5 1.6812914e+09
1.4019492 -7.8526759 -1.5408727 9 2 1.6812914e+09
3.3670902 -9.0140553 -1.5202609 22 3 1.6812914e+09
1.0330575 -5.8072095 -1.5700082 22 0 1.6812914e+09
nan nan nan 0 1 1.6812914e+09
3.7772269 -21.368082 4.9936624 33 14 1.6812914e+09
3.3087204 -8.8347483 2.5150285 8 15 1.6812914e+09
3.4368021 -19.441439 3.1143794 39 12 1.6812914e+09
3.2877197 -8.8348045 1.8239259 7 13 1.6812914e+09
3.3860924 -19.174004 1.7004086 53 10 1.6812914e+09
3.2858226 -8.8674183 1.1552002 11 11 1.6812914e+09
3.509269 -19.912502 0.35232043 19 8 1.6812914e+09
3.2869895 -8.899065 0.49535984 14 9 1.6812914e+09
3.7227902 -21.167923 -1.128314 56 6 1.6812914e+09
3.3918519 -9.1923857 -0.17042273 36 7 1.6812914e+09
2.057735 -11.731914 -1.4560939 7 4 1.6812914e+09
3.3942025 -9.198781 -0.85307467 35 5 1.6812914e+09
1.3724177 -7.8454328 -1.5384916 9 2 1.6812914e+09
3.3390329 -9.0350161 -1.5218271 8 3 1.6812914e+09
1.0107105 -5.7988844 -1.5667751 20 0 1.6812914e+09
1.2635428 -3.4163947 -0.83162194 11 1 1.6812914e+09
3.7005243 -21.346886 4.9858012 33 14 1.6812914e+09
3.2894926 -8.872839 2.522783 4 15 1.6812914e+09
3.4355502 -19.817696 3.1729131 41 12 1.6812914e+09
3.2779412 -8.8986158 1.8348875 2 13 1.6812914e+09
3.3666673 -19.460564 1.7248122 52 10 1.6812914e+09
nan nan nan 0 11 1.6812914e+09
3.4440684 -19.928953 0.35240769 27 8 1.6812914e+09
3.2694781 -8.9427376 0.49719158 3 9 1.6812914e+09
3.6894693 -21.394197 -1.139735 50 6 1.6812914e+09
nan nan nan 0 7 1.6812914e+09
2.0171382 -11.728891 -1.4548769 8 4 1.6812914e+09
3.3705232 -9.2286987 -0.85481429 32 5 1.6812914e+09
1.3450236 -7.8501754 -1.5384916 11 2 1.6812914e+09
3.3057766 -9.0419788 -1.521044 6 3 1.6812914e+09
0.99127376 -5.8071384 -1.5680684 19 0 1.6812914e+09
1.2454836 -3.4022737 -0.82712972 29 1 1.6812914e+09
3.6215043 -21.333252 4.9796243 36 14 1.6812914e+09
3.2951405 -8.9840136 2.5512159 4 15 1.6812914e+09
3.4101396 -20.087629 3.2142768 36 12 1.6812914e+09
3.2805145 -9.0022202 1.8539512 4 13 1.6812914e+09
3.3845212 -19.957802 1.7679542 45 10 1.6812914e+09
5.1280437 -14.133293 1.8391323 1 11 1.6812914e+09
3.3853209 -20.004936 0.35354212 28 8 1.6812914e+09
3.2212386 -8.9071484 0.49457476 8 9 1.6812914e+09
3.6234922 -21.458641 -1.1424917 42 6 1.6812914e+09
2.7682953 -7.669107 -0.14171353 15 7 1.6812914e+09
1.975361 -11.730967 -1.4542685 8 4 1.6812914e+09
