# .PCD v0.7 - Point Cloud Data file format
VERSION 0.7
FIELDS x y z intensity ring timestamp
SIZE 4 4 4 4 2 8
TYPE F F F F U F
COUNT 1 1 1 1 1 1
WIDTH 940
HEIGHT 1
VIEWPOINT 0 0 0 1 0 0 0
POINTS 940
DATA ascii
10.427091 -5.6713724 -1.0333446 39 5 1.6812926e+09
6.1669888 -4.9739056 -1.5303969 21 2 1.6812926e+09
8.6711197 -4.7132769 -1.5594127 16 3 1.6812926e+09
4.3603406 -3.5198791 -1.4911199 17 0 1.6812926e+09
5.5747466 -3.0233228 -1.4537941 21 1 1.6812926e+09
8.1316376 -6.5779352 2.4027755 46 14 1.6812926e+09
10.423195 -5.650538 3.1631718 43 15 1.6812926e+09
8.1289301 -6.5757585 1.6467463 46 12 1.6812926e+09
10.400617 -5.6664519 2.293371 42 13 1.6812926e+09
8.1351385 -6.5831404 0.91252059 44 10 1.6812926e+09
10.374036 -5.6730881 1.4454454 42 11 1.6812926e+09
8.1334229 -6.5864596 0.18207222 44 8 1.6812926e+09
10.355604 -5.6747398 0.61704093 43 9 1.6812926e+09
8.1269941 -6.5859513 -0.54820698 43 6 1.6812926e+09
10.350877 -5.6768432 -0.20545845 43 7 1.6812926e+09
8.1322832 -6.5972891 -1.2796345 39 4 1.6812926e+09
10.365731 -5.6849957 -1.029213 38 5 1.6812926e+09
6.1895857 -5.0279064 -1.5403963 21 2 1.6812926e+09
8.6048002 -4.7162442 -1.5504078 14 3 1.6812926e+09
4.3499007 -3.5366018 -1.4917665 18 0 1.6812926e+09
5.5855417 -3.0544367 -1.4594095 23 1 1.6812926e+09
8.0935202 -6.593967 2.398283 44 14 1.6812926e+09
10.380092 -5.6741543 3.1560636 43 15 1.6812926e+09
8.0906134 -6.5916133 1.6436244 51 12 1.6812926e+09
10.352805 -5.6873717 2.2871752 39 13 1.6812926e+09
8.1063194 -6.6067767 0.91186696 49 10 1.6812926e+09
10.329082 -5.6930957 1.4417946 43 11 1.6812926e+09
8.0774555 -6.5879469 0.18133049 46 8 1.6812926e+09
10.307319 -5.695168 0.61533999 44 9 1.6812926e+09
8.0788145 -6.5937533 -0.54650038 46 6 1.6812926e+09
10.309118 -5.7008519 -0.20502213 44 7 1.6812926e+09
8.0957556 -6.6146431 -1.2775048 39 4 1.6812926e+09
10.319665 -5.7066922 -1.0266035 38 5 1.6812926e+09
6.167181 -5.0437427 -1.538968 22 2 1.6812926e+09
8.7253103 -4.8199067 -1.5750734 15 3 1.6812926e+09
4.3337932 -3.5487032 -1.4904732 17 0 1.6812926e+09
5.6068583 -3.091536 -1.4678323 21 1 1.6812926e+09
8.0565424 -6.608407 2.3937907 44 14 1.6812926e+09
10.327367 -5.6899118 3.1457243 43 15 1.6812926e+09
8.059165 -6.6105747 1.6416733 46 12 1.6812926e+09
10.305972 -5.7062292 2.2809796 43 13 1.6812926e+09
8.0620356 -6.6176476 0.90947014 46 10 1.6812926e+09
10.278775 -5.7122531 1.4375353 44 11 1.6812926e+09
8.0517035 -6.6115241 0.18124324 46 8 1.6812926e+09
10.260015 -5.7135372 0.61363906 44 9 1.6812926e+09
8.0414762 -6.6078253 -0.54545021 43 6 1.6812926e+09
10.252034 -5.7161241 -0.20428041 44 7 1.6812926e+09
8.0584469 -6.62884 -1.2750709 39 4 1.6812926e+09
10.268044 -5.7227077 -1.0233417 38 5 1.6812926e+09
6.1362791 -5.0543137 -1.5356348 21 2 1.6812926e+09
8.775322 -4.8875494 -1.5872105 15 3 1.6812926e+09
4.3213797 -3.5638096 -1.4904732 17 0 1.6812926e+09
5.7265224 -3.1822019 -1.5020856 22 1 1.6812926e+09
8.0202808 -6.6256266 2.3898602 46 14 1.6812926e+09
10.279991 -5.710691 3.1373236 41 15 1.6812926e+09
8.0246201 -6.6292281 1.6393319 47 12 1.6812926e+09
10.253839 -5.7242374 2.2738307 43 13 1.6812926e+09
8.0266104 -6.6332383 0.90794492 44 10 1.6812926e+09
10.221964 -5.7274914 1.4323632 44 11 1.6812926e+09
8.0073891 -6.6220627 0.18076329 46 8 1.6812926e+09
10.216056 -5.7358813 0.61219978 44 9 1.6812926e+09
8.0106688 -6.6294875 -0.54492509 46 6 1.6812926e+09
10.199328 -5.7335143 -0.20362593 44 7 1.6812926e+09
8.0218859 -6.6458459 -1.2729412 40 4 1.6812926e+09
10.220943 -5.7456684 -1.0207322 38 5 1.6812926e+09
6.122376 -5.0788379 -1.5365871 21 2 1.6812926e+09
8.7905083 -4.9362702 -1.5930831 16 3 1.6812926e+09
4.307056 -3.5773284 -1.4898266 17 0 1.6812926e+09
5.738205 -3.2162545 -1.5082623 22 1 1.6812926e+09
7.989615 -6.6473489 2.3876143 49 14 1.6812926e+09
10.228381 -5.7288504 3.1276305 51 15 1.6812926e+09
7.982451 -6.6414022 1.6354297 50 12 1.6812926e+09
10.212405 -5.7479663 2.2690649 52 13 1.6812926e+09
7.9888487 -6.6514559 0.90641969 50 10 1.6812926e+09
10.182459 -5.752161 1.4296249 56 11 1.6812926e+09
7.9734631 -6.643364 0.18054512 46 8 1.6812926e+09
10.173236 -5.760993 0.6108914 54 9 1.6812926e+09
7.9690619 -6.6444111 -0.54374361 44 6 1.6812926e+09
10.183602 -5.7715454 -0.20371319 52 7 1.6812926e+09
7.9708061 -6.6529374 -1.2686819 39 4 1.6812926e+09
10.176986 -5.7678123 -1.0183402 39 5 1.6812926e+09
6.0085731 -5.019906 -1.5123026 22 2 1.6812926e+09
8.8871346 -5.0313463 -1.6138335 17 3 1.6812926e+09
4.2926908 -3.5907912 -1.4891798 17 0 1.6812926e+09
5.7502828 -3.2494323 -1.5144391 22 1 1.6812926e+09
7.9427967 -6.657805 2.3808756 47 14 1.6812926e+09
10.182077 -5.7520561 3.1198759 46 15 1.6812926e+09
7.9448099 -6.6595087 1.6326982 47 12 1.6812926e+09
10.14644 -5.7599325 2.2590561 42 13 1.6812926e+09
7.9484081 -6.6648965 0.9044587 47 10 1.6812926e+09
10.126804 -5.7698021 1.4247571 43 11 1.6812926e+09
7.9425673 -6.6647291 0.18037061 51 8 1.6812926e+09
10.120536 -5.777915 0.6089288 44 9 1.6812926e+09
7.9381738 -6.6657648 -0.54321849 50 6 1.6812926e+09
10.117805 -5.7810335 -0.20279695 43 7 1.6812926e+09
7.9380383 -6.6727343 -1.2671607 39 4 1.6812926e+09
10.12651 -5.7860155 -1.0152959 39 5 1.6812926e+09
5.9600968 -5.0166016 -1.504684 25 2 1.6812926e+09
8.8643465 -5.0614386 -1.6130506 16 3 1.6812926e+09
4.2819767 -3.6073098 -1.4898266 17 0 1.6812926e+09
5.7367873 -3.2682805 -1.5138776 22 1 1.6812926e+09
7.90834 -6.6760588 2.3775067 49 14 1.6812926e+09
10.132551 -5.770843 3.1108291 44 15 1.6812926e+09
7.9045353 -6.6728611 1.6291862 47 12 1.6812926e+09
10.11349 -5.7880063 2.2561967 43 13 1.6812926e+09
7.9079728 -6.6781368 0.90249771 46 10 1.6812926e+09
10.082927 -5.7915297 1.4214104 43 11 1.6812926e+09
7.8925295 -6.6698203 0.17975979 46 8 1.6812926e+09
10.085155 -5.8044949 0.60801291 44 9 1.6812926e+09
7.8957973 -6.6773095 -0.54190576 46 6 1.6812926e+09
10.062902 -5.7963676 -0.20209886 44 7 1.6812926e+09
7.8957624 -6.6843672 -1.2641183 39 4 1.6812926e+09
10.07603 -5.8039374 -1.0122515 39 5 1.6812926e+09
5.9462924 -5.0405507 -1.5056363 26 2 1.6812926e+09
8.8166561 -5.0751181 -1.6075692 13 3 1.6812926e+09
4.2675176 -3.6206722 -1.4891798 17 0 1.6812926e+09
5.7570443 -3.3064625 -1.5223005 22 1 1.6812926e+09
7.8645759 -6.6862626 2.3713298 47 14 1.6812926e+09
10.093491 -5.7953615 3.1050134 41 15 1.6812926e+09
7.8717899 -6.6924148 1.6272351 47 12 1.6812926e+09
10.059204 -5.8036647 2.2485712 43 13 1.6812926e+09
7.8675418 -6.6911755 0.90053666 44 10 1.6812926e+09
10.033592 -5.8075433 1.4171511 44 11 1.6812926e+09
7.8653927 -6.6940889 0.17967252 55 8 1.6812926e+09
10.025954 -5.8171263 0.60565782 46 9 1.6812926e+09
7.8553371 -6.690259 -0.54072428 47 6 1.6812926e+09
10.0145 -5.8151522 -0.20153165 44 7 1.6812926e+09
7.8704934 -6.7102776 -1.2638141 1 4 1.6812926e+09
10.027704 -5.8228269 -1.0094246 38 5 1.6812926e+09
6.0303359 -5.1462941 -1.5313493 23 2 1.6812926e+09
8.6438208 -5.0139585 -1.5789886 15 3 1.6812926e+09
4.2530174 -3.6339769 -1.4885333 17 0 1.6812926e+09
5.7264857 -3.3155653 -1.5172467 19 1 1.6812926e+09
7.8238544 -6.6964617 2.3657143 50 14 1.6812926e+09
10.042855 -5.8106713 3.0953202 44 15 1.6812926e+09
7.8251686 -6.6976023 1.6221621 46 12 1.6812926e+09
10.01656 -5.823431 2.2433286 43 13 1.6812926e+09
7.8441372 -6.7185979 0.90053666 47 10 1.6812926e+09
9.9875355 -5.8275356 1.4135003 42 11 1.6812926e+09
7.8184781 -6.698988 0.17910531 49 8 1.6812926e+09
9.9872074 -5.8390098 0.60448027 42 9 1.6812926e+09
7.8141599 -6.7000189 -0.53941154 46 6 1.6812926e+09
9.9725628 -5.8374553 -0.20109534 42 7 1.6812926e+09
7.7898355 -6.6862288 -1.2543826 1 4 1.6812926e+09
9.9803877 -5.8397079 -1.0065976 37 5 1.6812926e+09
nan nan nan 0 2 1.6812926e+09
8.6134748 -5.0366287 -1.5766395 10 3 1.6812926e+09
4.2311568 -3.6409218 -1.4853002 18 0 1.6812926e+09
5.6880937 -3.3185968 -1.5099469 19 1 1.6812926e+09
7.7930522 -6.7173681 2.3634684 46 14 1.6812926e+09
9.9870377 -5.8250217 3.0843349 43 15 1.6812926e+09
7.7905202 -6.7152009 1.6198207 46 12 1.6812926e+09
9.9644032 -5.8397593 2.2361796 44 13 1.6812926e+09
7.7935271 -6.7201738 0.89726841 43 10 1.6812926e+09
9.9457388 -5.849792 1.4104578 49 11 1.6812926e+09
7.7931557 -6.724606 0.17906168 48 8 1.6812926e+09
9.934494 -5.8548346 0.60251766 47 9 1.6812926e+09
7.7774987 -6.7158303 -0.53849262 51 6 1.6812926e+09
9.9219799 -5.8544588 -0.20048451 46 7 1.6812926e+09
7.7889724 -6.7328558 -1.2580335 40 4 1.6812926e+09
9.935318 -5.8623362 -1.0042057 39 5 1.6812926e+09
5.1779199 -4.4813805 -1.3218364 11 2 1.6812926e+09
8.6022234 -5.0704222 -1.577814 16 3 1.6812926e+09
4.2165976 -3.6540873 -1.4846536 17 0 1.6812926e+09
5.6233783 -3.3085759 -1.4959087 19 1 1.6812926e+09
7.756681 -6.7333498 2.3595378 48 14 1.6812926e+09
9.9499846 -5.8500619 3.079165 56 15 1.6812926e+09
7.7539811 -6.7310209 1.6170892 46 12 1.6812926e+09
9.922823 -5.8620319 2.2314138 51 13 1.6812926e+09
7.7650847 -6.7454257 0.89683259 47 10 1.6812926e+09
9.9017744 -5.8705616 1.4071113 54 11 1.6812926e+09
7.7420478 -6.7301598 0.17845084 48 8 1.6812926e+09
9.902235 -5.8848338 0.6018635 55 9 1.6812926e+09
7.7452984 -6.7377353 -0.5379675 47 6 1.6812926e+09
9.882143 -5.8775654 -0.20009184 55 7 1.6812926e+09
7.7474031 -6.7466903 -1.2552953 39 4 1.6812926e+09
9.88696 -5.8804417 -1.0013788 38 5 1.6812926e+09
5.245482 -4.5720139 -1.3432637 21 2 1.6812926e+09
8.5080318 -5.0550504 -1.5637194 22 3 1.6812926e+09
4.2001786 -3.6656067 -1.4833603 17 0 1.6812926e+09
5.63695 -3.3430798 -1.502647 21 1 1.6812926e+09
7.7209487 -6.7521095 2.3561685 51 14 1.6812926e+09
9.8973083 -5.8680291 3.0694721 43 15 1.6812926e+09
7.7181072 -6.74964 1.6147478 46 12 1.6812926e+09
9.871748 -5.8807893 2.2247415 43 13 1.6812926e+09
7.7264967 -6.7593679 0.89508945 47 10 1.6812926e+09
9.8461056 -5.8864546 1.4022434 44 11 1.6812926e+09
7.714747 -6.75385 0.17836358 46 8 1.6812926e+09
9.840929 -5.8950033 0.59937751 43 9 1.6812926e+09
7.7010789 -6.7466302 -0.53652346 48 6 1.6812926e+09
9.8272562 -5.8914738 -0.19939373 43 7 1.6812926e+09
7.7182102 -6.7687831 -1.2543826 40 4 1.6812926e+09
9.8343239 -5.8957214 -0.99811691 39 5 1.6812926e+09
5.6951652 -5.001018 -1.4637337 21 2 1.6812926e+09
8.4767342 -5.0785918 -1.5613703 26 3 1.6812926e+09
4.1782908 -3.672272 -1.4801272 16 0 1.6812926e+09
5.6231546 -3.3614874 -1.5020856 23 1 1.6812926e+09
7.6808815 -6.7645259 2.3511147 49 14 1.6812926e+09
9.8539553 -5.8889232 3.0623639 46 15 1.6812926e+09
7.6889415 -6.7716432 1.6135771 46 12 1.6812926e+09
9.823801 -5.8987994 2.2185457 43 13 1.6812926e+09
7.6935134 -6.7780643 0.89399999 51 10 1.6812926e+09
9.806366 -5.9092693 1.3995053 44 11 1.6812926e+09
7.6836271 -6.7741256 0.17818907 49 8 1.6812926e+09
9.7967787 -5.915134 0.5979383 44 9 1.6812926e+09
7.6737375 -6.7701674 -0.5362609 50 6 1.6812926e+09
9.7830935 -5.9115305 -0.1989138 44 7 1.6812926e+09
7.6945357 -6.7956834 -1.2543826 31 4 1.6812926e+09
9.796629 -5.9197168 -0.99637729 38 5 1.6812926e+09
nan nan nan 0 2 1.6812926e+09
8.482213 -5.1221795 -1.5656769 24 3 1.6812926e+09
4.1419449 -3.6660199 -1.4717211 17 0 1.6812926e+09
5.6030364 -3.3760724 -1.4998394 23 1 1.6812926e+09
7.6426435 -6.7783618 2.3466227 46 14 1.6812926e+09
9.7981634 -5.9021149 3.0513783 44 15 1.6812926e+09
7.6504803 -6.7853308 1.6104554 48 12 1.6812926e+09
9.7737503 -5.915277 2.2118735 44 13 1.6812926e+09
7.6493173 -6.786694 0.89160323 46 10 1.6812926e+09
9.7570133 -5.9237399 1.3952459 44 11 1.6812926e+09
7.6393757 -6.7826467 0.17770912 47 8 1.6812926e+09
9.7419376 -5.9285421 0.59584481 44 9 1.6812926e+09
7.6295323 -6.7786689 -0.53481686 46 6 1.6812926e+09
9.7346373 -5.9287524 -0.19834659 47 7 1.6812926e+09
5.1346684 -4.5660925 -0.83818191 7 4 1.6812926e+09
9.7503738 -5.9383421 -0.99376786 37 5 1.6812926e+09
5.2871199 -4.706676 -1.3665959 27 2 1.6812926e+09
8.4398594 -5.1348901 -1.5609788 22 3 1.6812926e+09
4.1489472 -3.698137 -1.4788339 16 0 1.6812926e+09
5.624547 -3.4158189 -1.5088239 22 1 1.6812926e+09
7.6037712 -6.789063 2.3415689 46 14 1.6812926e+09
9.757885 -5.9220524 3.0449162 44 15 1.6812926e+09
7.6150446 -6.799149 1.6077238 52 12 1.6812926e+09
9.7310247 -5.93361 2.2066309 42 13 1.6812926e+09
7.6162963 -6.8050551 0.89051378 49 10 1.6812926e+09
9.7129869 -5.9435234 1.3918992 42 11 1.6812926e+09
7.6037979 -6.7962794 0.1774037 50 8 1.6812926e+09
9.7115803 -5.9542942 0.59519064 43 9 1.6812926e+09
7.595849 -6.7939444 -0.53402925 46 6 1.6812926e+09
9.6925755 -5.9496288 -0.19791028 44 7 1.6812926e+09
7.6314654 -6.8330007 -1.2516445 33 4 1.6812926e+09
9.700901 -5.9524193 -0.99072343 38 5 1.6812926e+09
5.7365437 -5.142971 -1.4880182 22 2 1.6812926e+09
8.4766283 -5.1978536 -1.5711582 18 3 1.6812926e+09
4.1647592 -3.7384164 -1.4891798 17 0 1.6812926e+09
5.6464515 -3.454771 -1.5178082 19 1 1.6812926e+09
7.5800266 -6.8155642 2.3415689 47 14 1.6812926e+09
9.7144871 -5.9422245 3.0378079 43 15 1.6812926e+09
7.5673981 -6.8042212 1.6026509 50 12 1.6812926e+09
9.6788836 -5.9482799 2.199482 44 13 1.6812926e+09
7.5640664 -6.8036218 0.88702756 46 10 1.6812926e+09
9.6647177 -5.9604707 1.3879441 46 11 1.6812926e+09
7.5670252 -6.8110728 0.17709829 48 8 1.6812926e+09
9.654623 -5.9658628 0.59296638 47 9 1.6812926e+09
7.5591044 -6.8087192 -0.53311032 43 6 1.6812926e+09
9.6441069 -5.966341 -0.19734308 47 7 1.6812926e+09
7.5762429 -6.8313432 -1.2464722 37 4 1.6812926e+09
9.6599531 -5.9761496 -0.98876637 39 5 1.6812926e+09
5.7622666 -5.202445 -1.4994462 22 2 1.6812926e+09
8.5928974 -5.3104258 -1.5962154 22 3 1.6812926e+09
4.1481023 -3.749692 -1.4878868 17 0 1.6812926e+09
5.5030742 -3.3949561 -1.4824321 19 1 1.6812926e+09
7.5273008 -6.815815 2.3325846 46 14 1.6812926e+09
9.6751795 -5.9647002 3.0319922 55 15 1.6812926e+09
7.5362792 -6.8239632 1.60109 47 12 1.6812926e+09
9.6371918 -5.9691153 2.194716 54 13 1.6812926e+09
7.5335431 -6.8262815 0.88637394 50 10 1.6812926e+09
9.6227732 -5.9810801 1.3849018 52 11 1.6812926e+09
7.5216446 -6.8202877 0.17661834 50 8 1.6812926e+09
9.5987806 -5.9801002 0.59087294 51 9 1.6812926e+09
7.5137634 -6.8179212 -0.53166628 46 6 1.6812926e+09
9.6041269 -5.9880738 -0.19695039 54 7 1.6812926e+09
7.5438085 -6.8523908 -1.2452555 37 4 1.6812926e+09
9.6178951 -5.996664 -0.98659182 39 5 1.6812926e+09
5.7876439 -5.2621613 -1.5108742 21 2 1.6812926e+09
8.712676 -5.4264803 -1.6220555 13 3 1.6812926e+09
4.1474857 -3.7755318 -1.492413 16 0 1.6812926e+09
5.5594921 -3.4565434 -1.5009625 19 1 1.6812926e+09
7.4968705 -6.8384309 2.3308997 48 14 1.6812926e+09
9.6224775 -5.9810104 3.0222993 43 15 1.6812926e+09
7.5002728 -6.8415523 1.5987486 49 12 1.6812926e+09
9.5923443 -5.990108 2.1894734 43 13 1.6812926e+09
7.4967933 -6.8407836 0.88484871 46 10 1.6812926e+09
9.5755472 -6.0005069 1.3812507 43 11 1.6812926e+09
7.4922552 -6.8414445 0.17648746 49 8 1.6812926e+09
9.5566978 -6.0003023 0.5895645 44 9 1.6812926e+09
7.4825478 -6.8373694 -0.53114116 44 6 1.6812926e+09
9.5535288 -6.0029559 -0.19633956 43 7 1.6812926e+09
7.4997058 -6.8602557 -1.2419088 40 4 1.6812926e+09
9.5694818 -6.0129862 -0.98376489 40 5 1.6812926e+09
5.8153644 -5.3264489 -1.5232545 22 2 1.6812926e+09
8.6969109 -5.4610019 -1.6228385 15 3 1.6812926e+09
4.1467381 -3.8014133 -1.4969394 18 0 1.6812926e+09
5.5866327 -3.5004771 -1.5116315 19 1 1.6812926e+09
7.4621916 -6.8546696 2.3275309 46 14 1.6812926e+09
9.5769758 -5.9991879 3.0145445 44 15 1.6812926e+09
7.4617996 -6.8543258 1.5956268 46 12 1.6812926e+09
9.550601 -6.0104918 2.1847076 43 13 1.6812926e+09
7.4655352 -6.8601694 0.88397712 48 10 1.6812926e+09
9.5272617 -6.0166821 1.3772957 46 11 1.6812926e+09
7.4517717 -6.8523259 0.17609477 47 8 1.6812926e+09
9.5188131 -6.0229526 0.58851779 44 9 1.6812926e+09
7.4457784 -6.8516116 -0.53022224 49 6 1.6812926e+09
9.5092793 -6.0215664 -0.19585963 44 7 1.6812926e+09
7.4611144 -6.8729405 -1.2394748 41 4 1.6812926e+09
9.5231791 -6.0303745 -0.98115546 39 5 1.6812926e+09
5.8219872 -5.3700166 -1.5299208 21 2 1.6812926e+09
8.669446 -5.4860482 -1.6212724 13 3 1.6812926e+09
4.1369915 -3.8191423 -1.4982327 17 0 1.6812926e+09
5.5228615 -3.4874763 -1.4975934 19 1 1.6812926e+09
7.4292784 -6.8724022 2.324723 50 14 1.6812926e+09
9.5212507 -6.0106797 3.0035591 43 15 1.6812926e+09
7.4287667 -6.8719454 1.5936757 55 12 1.6812926e+09
9.4984674 -6.0240898 2.1775587 44 13 1.6812926e+09
7.43606 -6.8811116 0.88332349 49 10 1.6812926e+09
9.4821262 -6.032269 1.3736447 44 11 1.6812926e+09
7.4223056 -6.873199 0.17596388 46 8 1.6812926e+09
9.4724646 -6.0400467 0.58694774 46 9 1.6812926e+09
7.4089994 -6.8656793 -0.52930331 46 6 1.6812926e+09
9.4586945 -6.0359101 -0.19524878 47 7 1.6812926e+09
7.4261651 -6.8888154 -1.2376494 41 4 1.6812926e+09
9.4831705 -6.0515299 -0.9791984 39 5 1.6812926e+09
5.7358189 -5.3258209 -1.5118265 18 2 1.6812926e+09
8.6699514 -5.5267043 -1.6247962 14 3 1.6812926e+09
4.1236348 -3.83356 -1.4982327 18 0 1.6812926e+09
5.4756989 -3.4845243 -1.4880474 21 1 1.6812926e+09
7.3814917 -6.8737531 2.3168616 50 14 1.6812926e+09
9.4951506 -6.0383353 3.0016208 46 15 1.6812926e+09
7.3914819 -6.8830767 1.5905539 47 12 1.6812926e+09
9.4722328 -6.0515933 2.1761289 44 13 1.6812926e+09
7.3937778 -6.8900442 0.88114452 47 10 1.6812926e+09
9.4422073 -6.0532861 1.3709066 41 11 1.6812926e+09
7.3903313 -6.8892512 0.17574573 54 8 1.6812926e+09
9.4250679 -6.0538955 0.5852468 43 9 1.6812926e+09
7.384366 -6.8885083 -0.529172 52 6 1.6812926e+09
9.4270525 -6.0621347 -0.19503064 43 7 1.6812926e+09
7.3869596 -6.8981581 -1.2349112 41 4 1.6812926e+09
9.4316177 -6.0627565 -0.97593653 39 5 1.6812926e+09
5.6257868 -5.2603035 -1.487542 19 2 1.6812926e+09
8.6173582 -5.5355968 -1.6185318 13 3 1.6812926e+09
4.1049404 -3.8429773 -1.4962928 17 0 1.6812926e+09
5.5113063 -3.5328672 -1.5009625 22 1 1.6812926e+09
7.3503466 -6.8928103 2.3146155 55 14 1.6812926e+09
9.4353714 -6.0467005 2.9893427 43 15 1.6812926e+09
7.3602071 -6.9020772 1.588993 46 12 1.6812926e+09
9.4159622 -6.0620513 2.1680267 44 13 1.6812926e+09
7.3618083 -6.9060044 0.88005513 46 10 1.6812926e+09
9.4064245 -6.0767889 1.3687769 44 11 1.6812926e+09
7.3516617 -6.9013176 0.17539668 47 8 1.6812926e+09
9.3871078 -6.0759125 0.58420008 46 9 1.6812926e+09
7.3439012 -6.8988552 -0.52799052 46 6 1.6812926e+09
9.372262 -6.0732698 -0.19433253 46 7 1.6812926e+09
7.3537993 -6.915401 -1.2333901 41 4 1.6812926e+09
9.3884268 -6.0837493 -0.97376204 38 5 1.6812926e+09
5.6931386 -5.3606853 -1.5103979 21 2 1.6812926e+09
8.6062756 -5.5710068 -1.6200978 13 3 1.6812926e+09
4.0985279 -3.8639116 -1.4988794 17 0 1.6812926e+09
5.5167441 -3.56493 -1.5060163 21 1 1.6812926e+09
7.3067617 -6.9000249 2.3084388 47 14 1.6812926e+09
9.3959436 -6.0678153 2.9835267 50 15 1.6812926e+09
7.318119 -6.9107699 1.5850908 48 12 1.6812926e+09
9.3803282 -6.0855379 2.1646905 51 13 1.6812926e+09
7.3111095 -6.908988 0.87700468 44 10 1.6812926e+09
9.368515 -6.0987635 1.366343 54 11 1.6812926e+09
7.3136063 -6.9161916 0.17509125 57 8 1.6812926e+09
9.3501348 -6.1007338 0.5832842 51 9 1.6812926e+09
7.3040628 -6.9119954 -0.52694035 50 6 1.6812926e+09
9.3342571 -6.0950212 -0.19398348 51 7 1.6812926e+09
7.3085909 -6.923532 -1.2300434 41 4 1.6812926e+09
9.3483601 -6.1042366 -0.97180492 40 5 1.6812926e+09
5.6548057 -5.3619456 -1.5051601 23 2 1.6812926e+09
8.5888453 -5.6023622 -1.6204894 14 3 1.6812926e+09
4.0867662 -3.8798575 -1.4995259 16 0 1.6812926e+09
5.4960961 -3.5788538 -1.5037701 22 1 1.6812926e+09
7.2690697 -6.9150033 2.3045082 49 14 1.6812926e+09
9.3473215 -6.0850949 2.975126 44 15 1.6812926e+09
7.2784305 -6.9239278 1.581969 49 12 1.6812926e+09
9.3291988 -6.1010842 2.1580184 43 13 1.6812926e+09
7.2833405 -6.9310317 0.87656891 46 10 1.6812926e+09
9.3128958 -6.1112909 1.3614752 44 11 1.6812926e+09
7.2713213 -6.9244375 0.17465495 49 8 1.6812926e+09
9.2974834 -6.1127748 0.5813216 44 9 1.6812926e+09
7.2600136 -6.9185004 -0.5254963 46 6 1.6812926e+09
9.2815943 -6.1069708 -0.19332902 44 7 1.6812926e+09
7.2807879 -6.9455757 -1.229435 42 4 1.6812926e+09
9.3020229 -6.1204147 -0.96919549 39 5 1.6812926e+09
5.7930312 -5.5335431 -1.5475389 21 2 1.6812926e+09
8.3494987 -5.4901085 -1.5789886 13 3 1.6812926e+09
4.0801783 -3.9007771 -1.5021125 18 0 1.6812926e+09
5.47542 -3.5926774 -1.501524 21 1 1.6812926e+09
7.234334 -6.930222 2.3011389 44 14 1.6812926e+09
9.3038054 -6.1031241 2.9680181 46 15 1.6812926e+09
7.2506509 -6.9458752 1.5811886 48 12 1.6812926e+09
9.2873468 -6.1201177 2.1532524 44 13 1.6812926e+09
7.2429218 -6.9409018 0.87460786 44 10 1.6812926e+09
9.2832251 -6.1382909 1.3602582 46 11 1.6812926e+09
7.2362823 -6.939394 0.17439315 56 8 1.6812926e+09
9.25527 -6.131412 0.58001322 46 9 1.6812926e+09
7.2340183 -6.9420724 -0.52536505 60 6 1.6812926e+09
9.2372971 -6.1241488 -0.19284908 46 7 1.6812926e+09
7.2421856 -6.9571924 -1.227001 41 4 1.6812926e+09
9.257761 -6.1377182 -0.96680349 39 5 1.6812926e+09
5.7913642 -5.5707483 -1.5523005 21 2 1.6812926e+09
7.7496471 -5.1349058 -1.4685807 21 3 1.6812926e+09
4.0630584 -3.9116445 -1.5008192 16 0 1.6812926e+09
5.4587793 -3.6090837 -1.5004009 21 1 1.6812926e+09
7.2042994 -6.9474082 2.2988927 46 14 1.6812926e+09
9.26336 -6.1206384 2.9615557 42 15 1.6812926e+09
7.2098055 -6.9527364 1.5772862 50 12 1.6812926e+09
9.2363205 -6.1305366 2.1461034 44 13 1.6812926e+09
7.2073212 -6.9527764 0.87308264 44 10 1.6812926e+09
9.2132368 -6.1360493 1.3529564 46 11 1.6812926e+09
7.2096353 -6.9598808 0.1743059 49 8 1.6812926e+09
9.2078819 -6.1440668 0.57831234 44 9 1.6812926e+09
7.1948004 -6.9504089 -0.52418357 48 6 1.6812926e+09
9.1867571 -6.1369281 -0.19223824 44 7 1.6812926e+09
7.2119417 -6.9742694 -1.2257841 41 4 1.6812926e+09
9.2114229 -6.1534052 -0.96419406 39 5 1.6812926e+09
5.7340789 -5.5523553 -1.5418249 22 2 1.6812926e+09
7.9585676 -5.3112369 -1.5116477 18 3 1.6812926e+09
4.0511131 -3.9274852 -1.5014658 16 0 1.6812926e+09
5.4745445 -3.6470048 -1.5082623 21 1 1.6812926e+09
7.1747632 -6.9674215 2.2972083 48 14 1.6812926e+09
9.2157984 -6.1355486 2.9531553 44 15 1.6812926e+09
7.1837215 -6.976141 1.5768961 47 12 1.6812926e+09
9.1924191 -6.1477423 2.1408608 48 13 1.6812926e+09
7.1782169 -6.9756742 0.87264687 46 10 1.6812926e+09
9.1793966 -6.1598821 1.3511311 49 11 1.6812926e+09
7.1697445 -6.9723144 0.17395686 50 8 1.6812926e+09
9.1666508 -6.1652422 0.57713473 46 9 1.6812926e+09
7.1585441 -6.9662838 -0.5233959 49 6 1.6812926e+09
9.1486845 -6.1577997 -0.1918892 46 7 1.6812926e+09
7.1738901 -6.9885321 -1.2236543 41 4 1.6812926e+09
9.1712875 -6.1730137 -0.96223694 40 5 1.6812926e+09
5.7304726 -5.5877604 -1.5461103 22 2 1.6812926e+09
7.9461284 -5.3431153 -1.5128222 15 3 1.6812926e+09
4.0287418 -3.9331651 -1.4982327 16 0 1.6812926e+09
5.451663 -3.6593111 -1.5054547 19 1 1.6812926e+09
7.1300254 -6.9749289 2.2910314 46 14 1.6812926e+09
9.183218 -6.1625605 2.949924 44 15 1.6812926e+09
7.14222 -6.9868798 1.573384 52 12 1.6812926e+09
9.1453991 -6.1649418 2.1351418 44 13 1.6812926e+09
7.1484852 -6.9954624 0.87199324 51 10 1.6812926e+09
9.136198 -6.1795897 1.3480885 44 11 1.6812926e+09
7.1417913 -6.9938006 0.17386958 55 8 1.6812926e+09
9.1181984 -6.1790066 0.57543385 47 9 1.6812926e+09
7.1288362 -6.9859867 -0.52300209 47 6 1.6812926e+09
9.1064405 -6.1756759 -0.19145288 47 7 1.6812926e+09
7.1388254 -7.0031033 -1.2218289 41 4 1.6812926e+09
9.1331882 -6.1938133 -0.96049726 40 5 1.6812926e+09
5.5541611 -5.4556293 -1.5037316 21 2 1.6812926e+09
8.0450783 -5.4524932 -1.5355301 16 3 1.6812926e+09
4.0149879 -3.9472036 -1.4982327 16 0 1.6812926e+09
5.4166484 -3.6633224 -1.4992778 18 1 1.6812926e+09
7.0952229 -6.9895148 2.287662 47 14 1.6812926e+09
9.1316328 -6.1742997 2.9402311 49 15 1.6812926e+09
7.1037169 -6.9979019 1.5702622 46 12 1.6812926e+09
9.1014853 -6.1816697 2.1298993 49 13 1.6812926e+09
7.1080608 -7.0046368 0.87003225 47 10 1.6812926e+09
9.0899591 -6.1946855 1.3444377 56 11 1.6812926e+09
7.0995407 -7.0011334 0.17343329 49 8 1.6812926e+09
9.0800753 -6.1995416 0.57438707 52 9 1.6812926e+09
7.0901928 -6.9967971 -0.52195185 44 6 1.6812926e+09
9.0683126 -6.1961517 -0.19110385 51 7 1.6812926e+09
7.1037469 -7.0175152 -1.2200035 40 4 1.6812926e+09
9.0847721 -6.2074027 -0.95767039 39 5 1.6812926e+09
5.5315948 -5.4715309 -1.5027794 21 2 1.6812926e+09
8.028038 -5.4819341 -1.5359217 16 3 1.6812926e+09
3.9908912 -3.9509971 -1.4943529 16 0 1.6812926e+09
5.3877149 -3.6712444 -1.4947857 18 1 1.6812926e+09
7.0569482 -7.0005116 2.28317 48 14 1.6812926e+09
9.0860672 -6.1898308 2.9324765 49 15 1.6812926e+09
7.0757399 -7.019177 1.5694817 49 12 1.6812926e+09
9.0656691 -6.2037058 2.1265631 44 13 1.6812926e+09
7.0676594 -7.0136142 0.8680712 48 10 1.6812926e+09
9.046855 -6.2093573 1.341091 44 11 1.6812926e+09
7.067965 -7.018826 0.17325875 48 8 1.6812926e+09
9.0295753 -6.2114029 0.5725553 44 9 1.6812926e+09
7.0515618 -7.0074224 -0.52090168 46 6 1.6812926e+09
9.0177956 -6.2079372 -0.190493 47 7 1.6812926e+09
7.068655 -7.0317669 -1.218178 41 4 1.6812926e+09
9.0445814 -6.2263746 -0.95571333 40 5 1.6812926e+09
5.640348 -5.6162858 -1.5375395 22 2 1.6812926e+09
7.9874272 -5.493145 -1.531615 19 3 1.6812926e+09
3.9668171 -3.9546709 -1.4904732 16 0 1.6812926e+09
5.3708482 -3.687274 -1.4936626 19 1 1.6812926e+09
7.019907 -7.0101008 2.2786777 51 14 1.6812926e+09
9.0455713 -6.2062731 2.9260147 44 15 1.6812926e+09
7.0227256 -7.0129342 1.562848 46 12 1.6812926e+09
9.020792 -6.2170329 2.1208439 44 13 1.6812926e+09
7.0308046 -7.0259171 0.86654598 44 10 1.6812926e+09
9.0128756 -6.2324367 1.3392657 46 11 1.6812926e+09
7.0234408 -7.0210156 0.17273518 46 8 1.6812926e+09
8.9904528 -6.2285233 0.57137775 46 9 1.6812926e+09
7.0106382 -7.0131087 -0.51958889 46 6 1.6812926e+09
8.977581 -6.2265639 -0.19010033 47 7 1.6812926e+09
7.0347786 -7.0446315 -1.2163526 41 4 1.6812926e+09
8.9972687 -6.2378969 -0.9528864 40 5 1.6812926e+09
5.5877876 -5.6029148 -1.5284922 21 2 1.6812926e+09
7.8869948 -5.4647818 -1.5159543 23 3 1.6812926e+09
3.9427662 -3.9582245 -1.4865935 17 0 1.6812926e+09
5.3525767 -3.700912 -1.491978 19 1 1.6812926e+09
6.9919596 -7.0311069 2.2775548 51 14 1.6812926e+09
9.0000057 -6.2213421 2.9182601 46 15 1.6812926e+09
6.99124 -7.0304003 1.561287 51 12 1.6812926e+09
8.9788713 -6.2344947 2.1160779 43 13 1.6812926e+09
7.0021996 -7.0438933 0.86589229 49 10 1.6812926e+09
8.9503336 -6.2355075 1.3331808 43 11 1.6812926e+09
7.0006514 -7.0472627 0.17277882 49 8 1.6812926e+09
8.9481783 -6.2455878 0.57006937 43 9 1.6812926e+09
6.9861155 -7.0375371 -0.51958889 46 6 1.6812926e+09
8.9352951 -6.2435546 -0.18966401 43 7 1.6812926e+09
7.0066519 -7.0656199 -1.2157441 42 4 1.6812926e+09
8.9600506 -6.2608519 -0.95136422 39 5 1.6812926e+09
5.5284843 -5.5822701 -1.5175405 24 2 1.6812926e+09
7.8496428 -5.479568 -1.5124305 23 3 1.6812926e+09
3.9238322 -3.9668114 -1.4846536 18 0 1.6812926e+09
5.3429761 -3.7232885 -1.4931011 18 1 1.6812926e+09
6.9571056 -7.0450692 2.2741857 52 14 1.6812926e+09
8.9584103 -6.2389264 2.911798 46 15 1.6812926e+09
6.9545135 -7.0424604 1.5585555 50 12 1.6812926e+09
8.9329147 -6.2489285 2.110359 46 13 1.6812926e+09
6.9535995 -7.0464625 0.86305976 46 10 1.6812926e+09
8.9163227 -6.2581639 1.3313553 48 11 1.6812926e+09
6.951962 -7.0497327 0.1722116 48 8 1.6812926e+09
8.9068441 -6.2654223 0.56889182 46 9 1.6812926e+09
6.9427547 -7.04531 -0.51827615 58 6 1.6812926e+09
8.8909569 -6.2588887 -0.18918408 44 7 1.6812926e+09
6.968524 -7.0788722 -1.2136145 41 4 1.6812926e+09
8.9136953 -6.2748966 -0.94875467 39 5 1.6812926e+09
5.5227289 -5.6155357 -1.5213498 21 2 1.6812926e+09
7.8708754 -5.5353236 -1.5202609 25 3 1.6812926e+09
3.9031944 -3.9735901 -1.4820671 18 0 1.6812926e+09
5.3119936 -3.729331 -1.4880474 18 1 1.6812926e+09
6.9227118 -7.061821 2.271378 46 14 1.6812926e+09
8.9137335 -6.2564664 2.90469 43 15 1.6812926e+09
6.9372954 -7.0767207 1.5605066 50 12 1.6812926e+09
8.8818626 -6.2618418 2.1036866 44 13 1.6812926e+09
6.927217 -7.068913 0.86284184 47 10 1.6812926e+09
8.8771143 -6.279345 1.3289216 47 11 1.6812926e+09
6.9290609 -7.0757432 0.17225525 52 8 1.6812926e+09
8.8604689 -6.2791629 0.56732178 46 9 1.6812926e+09
6.9128823 -7.0641484 -0.51788235 47 6 1.6812926e+09
8.8486595 -6.275434 -0.18874776 46 7 1.6812926e+09
6.9333658 -7.0925055 -1.2117889 41 4 1.6812926e+09
8.8754816 -6.2944536 -0.94701511 40 5 1.6812926e+09
5.4146919 -5.5461597 -1.4970653 18 2 1.6812926e+09
7.8303828 -5.5498662 -1.5163459 27 3 1.6812926e+09
3.8977287 -3.9958367 -1.4853002 17 0 1.6812926e+09
5.2969537 -3.7464454 -1.4874859 18 1 1.6812926e+09
6.8980193 -7.0859432 2.271378 54 14 1.6812926e+09
8.8681707 -6.2708206 2.8969352 46 15 1.6812926e+09
6.8901639 -7.077888 1.5554339 44 12 1.6812926e+09
8.8479414 -6.2842855 2.100827 46 13 1.6812926e+09
6.8938174 -7.0841246 0.86175239 43 10 1.6812926e+09
8.830884 -6.2930222 1.3252705 47 11 1.6812926e+09
6.8903804 -7.0855479 0.17190619 51 8 1.6812926e+09
8.8263016 -6.3013554 0.56653672 49 9 1.6812926e+09
6.8812227 -7.0810728 -0.51735723 46 6 1.6812926e+09
8.8104248 -6.2946658 -0.18839872 47 7 1.6812926e+09
6.8878298 -7.0952959 -1.2081381 40 4 1.6812926e+09
8.8331842 -6.3109274 -0.94484061 40 5 1.6812926e+09
5.4414129 -5.6126122 -1.5099218 21 2 1.6812926e+09
nan nan nan 0 3 1.6812926e+09
3.8736792 -3.9990079 -1.4814204 16 0 1.6812926e+09
5.2481132 -3.7394919 -1.4773784 21 1 1.6812926e+09
6.8596997 -7.0959635 2.2668858 47 14 1.6812926e+09
8.838356 -6.2961369 2.8943505 55 15 1.6812926e+09
6.8842907 -7.1214275 1.5597261 58 12 1.6812926e+09
8.8459167 -6.3294053 2.105593 54 13 1.6812926e+09
6.8603954 -7.0991893 0.860663 52 10 1.6812926e+09
8.8200512 -6.3295021 1.3267919 55 11 1.6812926e+09
6.862133 -7.1059599 0.17181893 56 8 1.6812926e+09
8.8062792 -6.3335829 0.5666675 50 9 1.6812926e+09
6.851263 -7.099659 -0.51696336 47 6 1.6812926e+09
8.794486 -6.3297596 -0.18852961 51 7 1.6812926e+09
6.8578548 -7.113935 -1.2072254 41 4 1.6812926e+09
8.7767267 -6.3170037 -0.94114381 40 5 1.6812926e+09
5.431282 -5.6394668 -1.5123026 21 2 1.6812926e+09
8.0912313 -5.8176723 -1.5746818 13 3 1.6812926e+09
3.8613698 -4.014246 -1.4820671 17 0 1.6812926e+09
5.2350283 -3.7577884 -1.4773784 19 1 1.6812926e+09
6.8276958 -7.1098852 2.2640781 49 14 1.6812926e+09
8.7958384 -6.309936 2.8872423 42 15 1.6812926e+09
6.8349857 -7.117497 1.5538729 50 12 1.6812926e+09
8.715333 -6.2798429 2.0793803 39 13 1.6812926e+09
6.8252277 -7.112309 0.85935563 50 10 1.6812926e+09
8.6611156 -6.2614522 1.3061035 33 11 1.6812926e+09
6.8212309 -7.1106353 0.17138262 51 8 1.6812926e+09
8.6294889 -6.2500567 0.55659288 32 9 1.6812926e+09
6.8121371 -7.1061177 -0.51578194 46 6 1.6812926e+09
8.6670752 -6.2841659 -0.18626079 40 7 1.6812926e+09
6.8239307 -7.1258821 -1.2053999 40 4 1.6812926e+09
8.7012672 -6.3066344 -0.93527251 38 5 1.6812926e+09
5.3878202 -5.6335545 -1.5056363 19 2 1.6812926e+09
7.7288113 -5.5983591 -1.5077324 19 3 1.6812926e+09
3.8540041 -4.0346875 -1.4846536 17 0 1.6812926e+09
5.2482176 -3.7936623 -1.4846781 21 1 1.6812926e+09
6.7843461 -7.1142788 2.2579012 48 14 1.6812926e+09
8.6484451 -6.2501225 2.8458853 34 15 1.6812926e+09
6.7964683 -7.1270132 1.550751 52 12 1.6812926e+09
8.6079311 -6.2482738 2.0588868 34 13 1.6812926e+09
6.7998862 -7.1331005 0.85913777 50 10 1.6812926e+09
8.5830231 -6.2507682 1.2975847 35 11 1.6812926e+09
6.7894726 -7.127162 0.1712081 52 8 1.6812926e+09
8.5773573 -6.258081 0.55463028 35 9 1.6812926e+09
6.7804055 -7.1226192 -0.51525682 51 6 1.6812926e+09
8.5764341 -6.2642832 -0.18477733 37 7 1.6812926e+09
6.7904673 -7.140667 -1.2038788 40 4 1.6812926e+09
8.5674438 -6.2577376 -0.92331254 35 5 1.6812926e+09
5.3681231 -5.6523275 -1.5056363 22 2 1.6812926e+09
8.1322269 -5.9336495 -1.590734 13 3 1.6812926e+09
3.8282671 -4.0358477 -1.4801272 19 0 1.6812926e+09
5.2382178 -3.8157384 -1.4858012 19 1 1.6812926e+09
6.7628207 -7.1414561 2.2590244 49 14 1.6812926e+09
8.6031389 -6.2632265 2.8381307 34 15 1.6812926e+09
6.761364 -7.139935 1.5484098 50 12 1.6812926e+09
8.572196 -6.2681475 2.0555506 37 13 1.6812926e+09
6.7565818 -7.139883 0.85695881 47 10 1.6812926e+09
8.5491438 -6.2718887 1.2957593 37 11 1.6812926e+09
6.7478504 -7.1356506 0.17081541 55 8 1.6812926e+09
8.5362539 -6.276175 0.55345273 37 9 1.6812926e+09
6.7456822 -7.1383481 -0.51460046 57 6 1.6812926e+09
8.5243073 -6.271975 -0.18412289 38 7 1.6812926e+09
6.7625461 -7.1637015 -1.2035744 41 4 1.6812926e+09
8.5254822 -6.2728539 -0.92113805 37 5 1.6812926e+09
5.4055986 -5.7317491 -1.5218259 21 2 1.6812926e+09
8.1870928 -6.0175352 -1.6056117 13 3 1.6812926e+09
3.8207772 -4.0562196 -1.4827137 17 0 1.6812926e+09
5.2405872 -3.8455184 -1.4902934 18 1 1.6812926e+09
6.7149124 -7.143115 2.2517245 51 14 1.6812926e+09
8.5664902 -6.2847228 2.8336072 32 15 1.6812926e+09
6.7300763 -7.1592698 1.5472389 49 12 1.6812926e+09
8.5511417 -6.3009801 2.0560272 31 13 1.6812926e+09
6.7213869 -7.1525335 0.85565156 49 10 1.6812926e+09
8.5540438 -6.3238206 1.3000187 26 11 1.6812926e+09
6.7280345 -7.1646295 0.17094631 52 8 1.6812926e+09
8.5423899 -6.3267236 0.55528444 26 9 1.6812926e+09
6.7087669 -7.1491051 -0.51368147 51 6 1.6812926e+09
8.5213461 -6.3180552 -0.18455918 31 7 1.6812926e+09
6.7307124 -7.1800218 -1.2023575 41 4 1.6812926e+09
8.500433 -6.302577 -0.92092049 34 5 1.6812926e+09
5.4147382 -5.7837787 -1.5303969 21 2 1.6812926e+09
8.1014671 -6.0005026 -1.5930831 13 3 1.6812926e+09
3.8009384 -4.0649028 -1.4807738 18 0 1.6812926e+09
5.2342968 -3.8704884 -1.4925396 19 1 1.6812926e+09
6.6866131 -7.1629491 2.2506013 50 14 1.6812926e+09
8.6144419 -6.3662291 2.8568707 35 15 1.6812926e+09
6.6831431 -7.1592484 1.5421662 50 12 1.6812926e+09
8.5921755 -6.3775702 2.0712781 39 13 1.6812926e+09
6.6900311 -7.1716566 0.85499781 46 10 1.6812926e+09
8.5816879 -6.3906722 1.3076247 44 11 1.6812926e+09
6.6795754 -7.1654673 0.1703791 64 8 1.6812926e+09
8.5711823 -6.3967924 0.55868632 46 9 1.6812926e+09
6.6723118 -7.162684 -0.51289386 95 6 1.6812926e+09
8.5613451 -6.3941026 -0.18591176 43 7 1.6812926e+09
6.6891403 -7.1882911 -1.1996194 41 4 1.6812926e+09
8.5442505 -6.3813624 -0.92809653 33 5 1.6812926e+09
5.3544211 -5.7594967 -1.5189689 21 2 1.6812926e+09
8.1497622 -6.0803928 -1.6067864 14 3 1.6812926e+09
3.7998672 -4.0923076 -1.4859468 18 0 1.6812926e+09
5.2266188 -3.8930972 -1.4942241 21 1 1.6812926e+09
6.6520376 -7.1784735 2.2477937 50 14 1.6812926e+09
8.592989 -6.3992009 2.8575168 49 15 1.6812926e+09
6.65518 -7.1818838 1.5417758 51 12 1.6812926e+09
8.5687428 -6.4090195 2.0712781 48 13 1.6812926e+09
6.6581883 -7.1876564 0.85412633 49 10 1.6812926e+09
8.5652847 -6.4250526 1.3085374 51 11 1.6812926e+09
6.6545234 -7.1887398 0.1703791 55 8 1.6812926e+09
8.5488005 -6.426672 0.55868632 47 9 1.6812926e+09
6.6404891 -7.1786003 -0.51236874 56 6 1.6812926e+09
8.5309811 -6.4179411 -0.18573722 49 7 1.6812926e+09
6.6555886 -7.2024827 -1.1980981 41 4 1.6812926e+09
8.5338688 -6.4201269 -0.92940122 43 5 1.6812926e+09
5.3176403 -5.7601161 -1.5142072 22 2 1.6812926e+09
8.1344118 -6.1132517 -1.6079608 13 3 1.6812926e+09
3.7479205 -4.0647006 -1.4710745 17 0 1.6812926e+09
5.1974001 -3.8996327 -1.4897319 19 1 1.6812926e+09
6.6215982 -7.1933222 2.2455475 51 14 1.6812926e+09
8.5852509 -6.4377975 2.8620405 54 15 1.6812926e+09
6.6246395 -7.1966453 1.5402149 44 12 1.6812926e+09
8.5494032 -6.4388738 2.0717547 48 13 1.6812926e+09
6.6212573 -7.1980209 0.85260099 43 10 1.6812926e+09
8.5408249 -6.4534178 1.3082331 54 11 1.6812926e+09
6.62219 -7.2015667 0.17016095 57 8 1.6812926e+09
8.5154953 -6.4459505 0.55790126 50 9 1.6812926e+09
6.604825 -7.1877103 -0.51144981 47 6 1.6812926e+09
8.5105181 -6.4491892 -0.18578085 49 7 1.6812926e+09
6.6199236 -7.2117152 -1.1959684 41 4 1.6812926e+09
8.5125322 -6.4483905 -0.92940122 43 5 1.6812926e+09
5.322372 -5.8057842 -1.5213498 22 2 1.6812926e+09
8.1090841 -6.1386304 -1.6071779 13 3 1.6812926e+09
3.7744658 -4.1222987 -1.4872401 17 0 1.6812926e+09
5.1902742 -3.9212477 -1.4914165 19 1 1.6812926e+09
6.5849452 -7.2038031 2.241617 48 14 1.6812926e+09
8.5048952 -6.4240832 2.8426542 47 15 1.6812926e+09
6.5911498 -7.2106113 1.5382638 54 12 1.6812926e+09
8.4877596 -6.4390297 2.062223 47 13 1.6812926e+09
6.5939927 -7.2162614 0.85216528 55 10 1.6812926e+09
8.4620886 -6.4381566 1.2994101 46 11 1.6812926e+09
6.5919552 -7.2190995 0.17003006 56 8 1.6812926e+09
8.4552088 -6.4468904 0.55541533 48 9 1.6812926e+09
6.5729642 -7.2033434 -0.5109247 44 6 1.6812926e+09
8.4413776 -6.4410057 -0.18473372 48 7 1.6812926e+09
6.593039 -7.2329459 -1.1956643 41 4 1.6812926e+09
8.4721451 -6.4644761 -0.92744416 40 5 1.6812926e+09
5.2832656 -5.8016229 -1.5156358 21 2 1.6812926e+09
8.0827904 -6.1609993 -1.6060033 14 3 1.6812926e+09
3.7461557 -4.1187096 -1.4814204 18 0 1.6812926e+09
5.1474605 -3.9172332 -1.4829936 19 1 1.6812926e+09
6.5544705 -7.2183847 2.2393708 51 14 1.6812926e+09
8.466239 -6.4391012 2.8368382 48 15 1.6812926e+09
6.5506048 -7.2141442 1.5343617 52 12 1.6812926e+09
8.4448996 -6.4507632 2.0569804 48 13 1.6812926e+09
6.5537033 -7.2226319 0.85020429 49 10 1.6812926e+09
8.4297123 -6.460113 1.297889 51 11 1.6812926e+09
6.5528679 -7.2242541 0.16963737 51 8 1.6812926e+09
8.4179363 -6.462738 0.55436862 50 9 1.6812926e+09
6.5473652 -7.2232513 -0.51079345 44 6 1.6812926e+09
8.4109116 -6.4643426 -0.18455918 49 7 1.6812926e+09
6.5556951 -7.2400513 -1.1932303 41 4 1.6812926e+09
8.4230042 -6.4713044 -0.92439979 40 5 1.6812926e+09
5.3008327 -5.8619051 -1.5265875 19 2 1.6812926e+09
8.0533981 -6.1831646 -1.6044372 14 3 1.6812926e+09
3.7592638 -4.1622367 -1.492413 16 0 1.6812926e+09
5.1189637 -3.9224381 -1.4785014 19 1 1.6812926e+09
6.5227098 -7.233983 2.2371249 54 14 1.6812926e+09
8.4264498 -6.4554038 2.8310225 47 15 1.6812926e+09
6.525383 -7.2369666 1.5343617 52 12 1.6812926e+09
8.4126024 -6.472724 2.0545974 47 13 1.6812926e+09
6.5247145 -7.2387743 0.84955055 50 10 1.6812926e+09
8.3835316 -6.4713144 1.2942381 47 11 1.6812926e+09
6.5225935 -7.2415109 0.16950649 51 8 1.6812926e+09
8.3775454 -6.4783449 0.55319101 46 9 1.6812926e+09
6.5070834 -7.2293591 -0.50961196 46 6 1.6812926e+09
8.3676777 -6.4753804 -0.18407924 46 7 1.6812926e+09
6.522089 -7.2536631 -1.191709 41 4 1.6812926e+09
8.3924818 -6.4945736 -0.92352992 40 5 1.6812926e+09
5.2557487 -5.8529768 -1.5194452 27 2 1.6812926e+09
8.0278578 -6.2082191 -1.6036541 13 3 1.6812926e+09
3.7422161 -4.1710835 -1.4911199 17 0 1.6812926e+09
5.0898037 -3.9283869 -1.4740092 21 1 1.6812926e+09
6.4827971 -7.2403698 2.2320712 49 14 1.6812926e+09
8.3847389 -6.4700332 2.8245604 49 15 1.6812926e+09
6.4852595 -7.2431402 1.5308497 49 12 1.6812926e+09
8.3686113 -6.4855223 2.0493548 49 13 1.6812926e+09
6.4861221 -7.2466578 0.84780753 46 10 1.6812926e+09
8.3510933 -6.4929266 1.2927169 46 11 1.6812926e+09
6.4839478 -7.2493281 0.16915745 65 8 1.6812926e+09
8.3469992 -6.5014157 0.55266768 46 9 1.6812926e+09
6.4701648 -7.238997 -0.50869304 60 6 1.6812926e+09
8.3351622 -6.4968705 -0.18386109 46 7 1.6812926e+09
6.4818578 -7.2597237 -1.1889709 40 4 1.6812926e+09
8.3481464 -6.5069971 -0.92113805 40 5 1.6812926e+09
5.1977277 -5.8291473 -1.5084933 24 2 1.6812926e+09
8.0041904 -6.2346878 -1.6032627 11 3 1.6812926e+09
3.7228158 -4.17871 -1.4891798 17 0 1.6812926e+09
5.0779843 -3.9476233 -1.4745708 21 1 1.6812926e+09
6.4493923 -7.2538509 2.2292635 52 14 1.6812926e+09
8.3411207 -6.4829688 2.8174522 46 15 1.6812926e+09
6.4517355 -7.2565055 1.5288986 51 12 1.6812926e+09
8.3362455 -6.5071487 2.046972 46 13 1.6812926e+09
6.4475536 -7.2543597 0.84606433 51 10 1.6812926e+09
8.3107882 -6.5082769 1.2899786 46 11 1.6812926e+09
6.4469862 -7.2588329 0.16885203 54 8 1.6812926e+09
8.2987108 -6.5104914 0.5509668 46 9 1.6812926e+09
6.4316006 -7.2465982 -0.50764281 50 6 1.6812926e+09
8.3025999 -6.5182128 -0.18364294 46 7 1.6812926e+09
6.4466028 -7.2711635 -1.1871456 40 4 1.6812926e+09
8.3097038 -6.5238008 -0.91939837 39 5 1.6812926e+09
5.1334324 -5.7976341 -1.4956368 22 2 1.6812926e+09
7.9726605 -6.2549729 -1.601305 11 3 1.6812926e+09
3.7034082 -4.1862521 -1.4872401 17 0 1.6812926e+09
5.0641737 -3.9653246 -1.4745708 21 1 1.6812926e+09
6.42242 -7.2744923 2.2287018 47 14 1.6812926e+09
8.3127346 -6.5075817 2.8155136 46 15 1.6812926e+09
6.4198298 -7.2715755 1.5273377 49 12 1.6812926e+09
8.2922516 -6.5195327 2.0417295 46 13 1.6812926e+09
6.4156022 -7.2693524 0.84519285 49 10 1.6812926e+09
8.2743769 -6.5264959 1.2878489 52 11 1.6812926e+09
6.418303 -7.2775426 0.16876477 90 8 1.6812926e+09
8.2602577 -6.5270433 0.54992002 48 9 1.6812926e+09
6.4128675 -7.2764969 -0.50816792 90 6 1.6812926e+09
8.2582216 -6.5301089 -0.183163 47 7 1.6812926e+09
6.4162636 -7.2880335 -1.1862327 39 4 1.6812926e+09
8.2732019 -6.5419598 -0.91787618 40 5 1.6812926e+09
5.1455655 -5.8523879 -1.5051601 22 2 1.6812926e+09
7.9449644 -6.2781754 -1.6001304 11 3 1.6812926e+09
3.6839931 -4.1937094 -1.4853002 17 0 1.6812926e+09
5.0675263 -3.9965422 -1.4796244 22 1 1.6812926e+09
6.3873534 -7.2858725 2.2253325 50 14 1.6812926e+09
8.2672033 -6.5186253 2.8077593 50 15 1.6812926e+09
6.3911529 -7.2902265 1.5265572 50 12 1.6812926e+09
8.2598219 -6.5408244 2.0393465 48 13 1.6812926e+09
6.3901882 -7.2917023 0.84519285 49 10 1.6812926e+09
8.241827 -6.5476255 1.2863278 52 11 1.6812926e+09
6.3763952 -7.2810946 0.16832845 54 8 1.6812926e+09
8.2296076 -6.5496216 0.54939663 50 9 1.6812926e+09
6.3726349 -7.2819266 -0.50698644 55 6 1.6812926e+09
8.220542 -6.5494361 -0.18285759 63 7 1.6812926e+09
6.3842535 -7.3029127 -1.1850159 40 4 1.6812926e+09
8.2335806 -6.5598302 -0.9161365 40 5 1.6812926e+09
5.0541043 -5.7889519 -1.4842088 21 2 1.6812926e+09
7.9191365 -6.3027964 -1.5993475 13 3 1.6812926e+09
3.6511455 -4.1871567 -1.4781872 17 0 1.6812926e+09
4.9936843 -3.9681487 -1.4622171 17 1 1.6812926e+09
6.3538861 -7.2989359 2.2225249 44 14 1.6812926e+09
8.2387218 -6.5429397 2.8058205 48 15 1.6812926e+09
6.3559399 -7.3013144 1.5242158 43 12 1.6812926e+09
8.2119875 -6.5497341 2.0331507 47 13 1.6812926e+09
6.3536143 -7.3037987 0.84388548 49 10 1.6812926e+09
8.1976004 -6.5593109 1.2829812 46 11 1.6812926e+09
6.351306 -7.3063035 0.16837208 54 8 1.6812926e+09
8.1899605 -6.5672531 0.54834998 46 9 1.6812926e+09
6.3459024 -7.3052349 -0.50698644 52 6 1.6812926e+09
8.168376 -6.5546379 -0.18220311 48 7 1.6812926e+09
6.3574443 -7.3262634 -1.1850159 40 4 1.6812926e+09
8.1950865 -6.5760684 -0.91439688 40 5 1.6812926e+09
nan nan nan 0 2 1.6812926e+09
7.8932323 -6.3273139 -1.5985644 13 3 1.6812926e+09
3.6191254 -4.1797881 -1.4710745 17 0 1.6812926e+09
4.9322257 -3.947535 -1.4481789 17 1 1.6812926e+09
6.3191295 -7.3129573 2.2197175 55 14 1.6812926e+09
8.192049 -6.554997 2.7980661 49 15 1.6812926e+09
6.3242946 -7.3189554 1.5230452 52 12 1.6812926e+09
8.17453 -6.5690341 2.0298145 47 13 1.6812926e+09
6.3215699 -7.3183923 0.84301388 51 10 1.6812926e+09
8.1580448 -6.5768609 1.2805473 52 11 1.6812926e+09
6.3192315 -7.320859 0.16819756 44 8 1.6812926e+09
8.1553278 -6.5863953 0.54756492 50 9 1.6812926e+09
6.3122125 -7.3178883 -0.50633007 43 6 1.6812926e+09
8.1396122 -6.5784001 -0.18207222 49 7 1.6812926e+09
6.3237343 -7.3390088 -1.1834946 40 4 1.6812926e+09
8.1604557 -6.5952463 -0.91309214 40 5 1.6812926e+09
5.2206025 -6.0668526 -1.5461103 23 2 1.6812926e+09
7.8757529 -6.3608532 -1.5997391 11 3 1.6812926e+09
3.5887747 -4.1740794 -1.4646082 17 0 1.6812926e+09
4.9241095 -3.9693098 -1.4498636 21 1 1.6812926e+09
6.2888069 -7.3294239 2.2180328 51 14 1.6812926e+09
8.1653566 -6.5805235 2.7967737 46 15 1.6812926e+09
6.2890625 -7.3297405 1.5207038 49 12 1.6812926e+09
8.1267424 -6.5774674 2.0236187 47 13 1.6812926e+09
6.2830172 -7.3252888 0.84127086 47 10 1.6812926e+09
8.1215487 -6.5943542 1.2784176 49 11 1.6812926e+09
6.2871332 -7.3352799 0.16802303 48 8 1.6812926e+09
8.1032257 -6.5912046 0.54560232 46 9 1.6812926e+09
6.2833819 -7.3360844 -0.50606751 62 6 1.6812926e+09
8.0972071 -6.5910006 -0.1816359 49 7 1.6812926e+09
6.2916269 -7.3534956 -1.1822777 41 4 1.6812926e+09
8.1122656 -6.6032639 -0.91026527 39 5 1.6812926e+09
5.2121444 -6.0999684 -1.5499197 22 2 1.6812926e+09
7.8439202 -6.3805194 -1.5977813 11 3 1.6812926e+09
3.5820198 -4.1957664 -1.4678413 17 0 1.6812926e+09
4.9253635 -3.9987471 -1.4543557 19 1 1.6812926e+09
6.2537069 -7.3402033 2.2146637 51 14 1.6812926e+09
8.1179514 -6.58921 2.788373 49 15 1.6812926e+09
6.2538319 -7.3403687 1.5183625 51 12 1.6812926e+09
8.0923157 -6.5964961 2.0207591 48 13 1.6812926e+09
6.2525644 -7.3414865 0.84061712 50 10 1.6812926e+09
8.0734997 -6.602253 1.2744625 48 11 1.6812926e+09
6.2517715 -7.3457584 0.16776125 54 8 1.6812926e+09
8.0647125 -6.6067996 0.5445556 46 9 1.6812926e+09
6.2464166 -7.3446574 -0.50514859 46 6 1.6812926e+09
8.0664158 -6.6128902 -0.18146139 46 7 1.6812926e+09
6.2546759 -7.3621731 -1.180148 40 4 1.6812926e+09
8.08146 -6.6252284 -0.90939546 39 5 1.6812926e+09
5.1003399 -6.0114346 -1.5227783 23 2 1.6812926e+09
7.8254228 -6.4109893 -1.5985644 13 3 1.6812926e+09
3.5735962 -4.2156153 -1.4704278 16 0 1.6812926e+09
4.9660997 -4.060595 -1.4706399 19 1 1.6812926e+09
6.2154617 -7.3471069 2.2101715 50 14 1.6812926e+09
8.0855484 -6.609868 2.7851419 46 15 1.6812926e+09
6.215414 -7.3470693 1.5152407 49 12 1.6812926e+09
8.0502653 -6.6091399 2.0159934 44 13 1.6812926e+09
6.2156448 -7.3499541 0.8390919 59 10 1.6812926e+09
8.0446568 -6.6256647 1.2735498 46 11 1.6812926e+09
6.2180262 -7.3579888 0.16754308 86 8 1.6812926e+09
8.0242643 -6.6206183 0.54337806 46 9 1.6812926e+09
6.2142997 -7.3587861 -0.50462347 46 6 1.6812926e+09
8.0124321 -6.6155567 -0.18076329 46 7 1.6812926e+09
6.2209406 -7.374476 -1.1786268 41 4 1.6812926e+09
8.0352297 -6.6343794 -0.90678602 39 5 1.6812926e+09
5.0113487 -5.9484777 -1.5023031 22 2 1.6812926e+09
7.7953758 -6.4319839 -1.5969985 13 3 1.6812926e+09
3.5604134 -4.2299118 -1.4710745 16 0 1.6812926e+09
4.918025 -4.050055 -1.4605325 17 1 1.6812926e+09
6.1929102 -7.372489 2.2112944 51 14 1.6812926e+09
8.0344515 -6.6150398 2.775449 46 15 1.6812926e+09
6.1817913 -7.3592658 1.5132896 52 12 1.6812926e+09
8.0157938 -6.6278214 2.0131335 44 13 1.6812926e+09
6.1835465 -7.3639755 0.8382203 51 10 1.6812926e+09
8.0042849 -6.6394553 1.2708116 49 11 1.6812926e+09
6.1778469 -7.3624129 0.16715041 58 8 1.6812926e+09
7.9895797 -6.639019 0.542593 46 9 1.6812926e+09
6.1741405 -7.3632135 -0.50344199 47 6 1.6812926e+09
7.9816003 -6.6370964 -0.18058877 46 7 1.6812926e+09
6.1887894 -7.3885365 -1.1774099 41 4 1.6812926e+09
8.0005293 -6.6528382 -0.90548128 40 5 1.6812926e+09
5.0960302 -6.0920815 -1.5342062 21 2 1.6812926e+09
7.7747765 -6.4607329 -1.5973898 13 3 1.6812926e+09
3.5595596 -4.2589955 -1.4768941 18 0 1.6812926e+09
4.8850961 -4.0516591 -1.4549173 18 1 1.6812926e+09
6.1530981 -7.3772221 2.2062409 50 14 1.6812926e+09
8.0057316 -6.6384225 2.7735102 52 15 1.6812926e+09
6.1465769 -7.3694196 1.5109482 48 12 1.6812926e+09
7.9831767 -6.6479135 2.0107508 50 13 1.6812926e+09
6.1482368 -7.3740368 0.83691305 66 10 1.6812926e+09
7.9677238 -6.6562243 1.2686819 50 11 1.6812926e+09
6.160109 -7.3935375 0.16736858 56 8 1.6812926e+09
7.95678 -6.6588602 0.54193878 49 9 1.6812926e+09
6.153192 -7.3904772 -0.5038358 46 6 1.6812926e+09
7.9372959 -6.6472712 -0.18010882 48 7 1.6812926e+09
6.1550283 -7.4005532 -1.1758885 41 4 1.6812926e+09
7.9562464 -6.6631441 -0.90308923 40 5 1.6812926e+09
4.9258037 -5.9304461 -1.4889705 15 2 1.6812926e+09
7.7427049 -6.4799132 -1.5954323 13 3 1.6812926e+09
3.5446713 -4.2713952 -1.4768941 17 0 1.6812926e+09
4.8765354 -4.0733671 -1.4566017 19 1 1.6812926e+09
6.1273098 -7.3986554 2.2062409 50 14 1.6812926e+09
7.9658203 -6.6524029 2.7676945 46 15 1.6812926e+09
6.1255398 -7.3965364 1.5121189 51 12 1.6812926e+09
7.9392304 -6.6584005 2.0055082 46 13 1.6812926e+09
6.1192837 -7.3916159 0.83647722 55 10 1.6812926e+09
7.9209108 -6.6618571 1.2647268 46 11 1.6812926e+09
6.1151466 -7.3918786 0.16684499 57 8 1.6812926e+09
7.9124818 -6.6689053 0.54049957 48 9 1.6812926e+09
6.1066828 -7.3868937 -0.50212926 55 6 1.6812926e+09
7.9044871 -6.6668835 -0.17989068 46 7 1.6812926e+09
6.1228399 -7.4143391 -1.1746716 41 4 1.6812926e+09
7.9234176 -6.6828513 -0.90200198 40 5 1.6812926e+09
4.8545837 -5.8842635 -1.4732569 21 2 1.6812926e+09
7.7173963 -6.5023732 -1.5946493 13 3 1.6812926e+09
3.5374153 -4.2930627 -1.4801272 16 0 1.6812926e+09
4.8566909 -4.0856643 -1.4549173 21 1 1.6812926e+09
6.0965519 -7.4114065 2.2039948 43 14 1.6812926e+09
7.9400182 -6.6756744 2.766402 47 15 1.6812926e+09
6.0915675 -7.4053645 1.5097775 52 12 1.6812926e+09
7.9077277 -6.6767802 2.0031252 46 13 1.6812926e+09
6.0966067 -7.416779 0.83691305 51 10 1.6812926e+09
7.8862429 -6.6798482 1.2629013 49 11 1.6812926e+09
6.0874271 -7.4082537 0.16675773 55 8 1.6812926e+09
