# .PCD v0.7 - Point Cloud Data file format
VERSION 0.7
FIELDS x y z intensity ring timestamp
SIZE 4 4 4 4 2 8
TYPE F F F F U F
COUNT 1 1 1 1 1 1
WIDTH 975
HEIGHT 1
VIEWPOINT 0 0 0 1 0 0 0
POINTS 975
DATA ascii
-10.403483 -8.185977 0.23045902 28 8 1.6812914e+09
-19.702408 -22.262619 1.5562096 27 9 1.6812914e+09
-10.421079 -8.1939287 -0.69523573 27 6 1.6812914e+09
-19.328232 -21.824345 -0.50825769 1 7 1.6812914e+09
-9.3221035 -7.3221664 -1.4490963 8 4 1.6812914e+09
-10.19775 -11.51145 -1.3397381 6 5 1.6812914e+09
nan nan nan 0 2 1.6812914e+09
nan nan nan 0 3 1.6812914e+09
-1.2241653 -0.96105069 -0.40737444 6 0 1.6812914e+09
-0.91786355 -1.0329763 -0.31052458 4 1 1.6812914e+09
-11.819727 -9.2434368 3.4505851 8 14 1.6812914e+09
-19.57119 -22.16086 7.9017906 29 15 1.6812914e+09
-18.262165 -14.280427 3.6579618 7 12 1.6812914e+09
-19.675926 -22.185741 5.7520146 35 13 1.6812914e+09
-28.339958 -22.151752 3.1439254 52 10 1.6812914e+09
-18.273453 -20.546057 3.367027 9 11 1.6812914e+09
-10.404416 -8.1280727 0.22984819 28 8 1.6812914e+09
-19.841448 -22.26268 1.5610507 23 9 1.6812914e+09
-10.41419 -8.1298552 -0.69287276 27 6 1.6812914e+09
-19.657143 -22.040333 -0.5148896 99 7 1.6812914e+09
-9.3417358 -7.2850046 -1.4481837 8 4 1.6812914e+09
-10.234555 -11.472065 -1.3393034 6 5 1.6812914e+09
nan nan nan 0 2 1.6812914e+09
-1.317299 -1.4720951 -0.30773246 6 3 1.6812914e+09
-1.2332318 -0.96121907 -0.40931433 6 0 1.6812914e+09
-0.92631876 -1.0352287 -0.31220919 3 1 1.6812914e+09
-11.8253 -9.1847677 3.4432855 8 14 1.6812914e+09
-19.65099 -22.103058 7.9043751 14 15 1.6812914e+09
-18.264557 -14.184955 3.6489866 7 12 1.6812914e+09
-19.816389 -22.195442 5.7715549 29 13 1.6812914e+09
-28.564676 -22.1672 3.1602671 33 10 1.6812914e+09
-20.006918 -22.338224 3.6724842 20 11 1.6812914e+09
-10.40366 -8.0720768 0.22923733 29 8 1.6812914e+09
-19.973509 -22.26181 1.5656301 13 9 1.6812914e+09
-10.411495 -8.0723333 -0.6909036 28 6 1.6812914e+09
-19.805767 -22.051559 -0.51676571 97 7 1.6812914e+09
-9.3717279 -7.258544 -1.4490963 8 4 1.6812914e+09
-10.275869 -11.44177 -1.3397381 4 5 1.6812914e+09
nan nan nan 0 2 1.6812914e+09
-1.3092402 -1.4527831 -0.30460033 11 3 1.6812914e+09
-1.242314 -0.96133572 -0.4112542 6 0 1.6812914e+09
nan nan nan 0 1 1.6812914e+09
-11.824491 -9.1181469 3.4337394 7 14 1.6812914e+09
-19.753792 -22.06312 7.9147143 14 15 1.6812914e+09
-18.272896 -14.089453 3.6407919 9 12 1.6812914e+09
-19.93968 -22.177238 5.7848997 36 13 1.6812914e+09
-28.916174 -22.286711 3.1909897 53 10 1.6812914e+09
-19.998363 -22.172421 3.6566637 35 11 1.6812914e+09
-10.400086 -8.0113096 0.22853924 28 8 1.6812914e+09
nan nan nan 0 9 1.6812914e+09
-10.41191 -8.0146265 -0.68906575 29 6 1.6812914e+09
-19.844063 -21.939646 -0.51576221 96 7 1.6812914e+09
-9.3930731 -7.2227616 -1.4484879 8 4 1.6812914e+09
-10.321077 -11.407724 -1.3401731 6 5 1.6812914e+09
nan nan nan 0 2 1.6812914e+09
-1.3192687 -1.4537013 -0.30577487 9 3 1.6812914e+09
-1.2475789 -0.95846254 -0.41190085 6 0 1.6812914e+09
nan nan nan 0 1 1.6812914e+09
-11.834967 -9.0605297 3.4275625 7 14 1.6812914e+09
-19.968124 -22.146513 7.9696417 40 15 1.6812914e+09
-18.263138 -13.980556 3.6290853 7 12 1.6812914e+09
-20.096024 -22.194839 5.8077765 33 13 1.6812914e+09
-29.098555 -22.25774 3.2021019 29 10 1.6812914e+09
-19.843771 -21.847122 3.6143742 28 11 1.6812914e+09
-10.405548 -7.9549236 0.22801568 29 8 1.6812914e+09
nan nan nan 0 9 1.6812914e+09
-10.41939 -7.9597416 -0.68762171 27 6 1.6812914e+09
-19.191822 -21.069971 -0.49686998 33 7 1.6812914e+09
-9.4194832 -7.1882858 -1.4484879 8 4 1.6812914e+09
-10.354127 -11.364261 -1.3393034 6 5 1.6812914e+09
nan nan nan 0 2 1.6812914e+09
-1.3243351 -1.4490873 -0.30577487 9 3 1.6812914e+09
-1.2547605 -0.95702672 -0.41319409 6 0 1.6812914e+09
nan nan nan 0 1 1.6812914e+09
-11.848697 -9.0023546 3.4219475 6 14 1.6812914e+09
-20.118971 -22.150057 7.9974284 34 15 1.6812914e+09
-18.270996 -13.880663 3.6205003 7 12 1.6812914e+09
-20.225191 -22.173622 5.8215976 32 13 1.6812914e+09
-29.310949 -22.258446 3.2169185 29 10 1.6812914e+09
-19.876375 -21.73011 3.6064641 30 11 1.6812914e+09
-10.403384 -7.8958893 0.22736122 29 8 1.6812914e+09
-19.639292 -21.425758 1.5214062 2 9 1.6812914e+09
-10.411303 -7.8961716 -0.68525875 29 6 1.6812914e+09
-19.344652 -21.089439 -0.49892065 20 7 1.6812914e+09
-9.4524288 -7.1613545 -1.4497048 8 4 1.6812914e+09
-10.397099 -11.33172 -1.3397381 6 5 1.6812914e+09
nan nan nan 0 2 1.6812914e+09
-1.3277173 -1.4426347 -0.30538335 8 3 1.6812914e+09
-1.2677279 -0.95991945 -0.41642722 6 0 1.6812914e+09
nan nan nan 0 1 1.6812914e+09
-11.835699 -8.9307375 3.4095936 6 14 1.6812914e+09
-20.233049 -22.127783 8.0135832 36 15 1.6812914e+09
-18.267643 -13.782821 3.6107447 7 12 1.6812914e+09
-20.30691 -22.115471 5.8239803 22 13 1.6812914e+09
-10.561163 -7.9634528 1.1541599 7 10 1.6812914e+09
-20.244579 -21.978214 3.6594019 22 11 1.6812914e+09
-10.403559 -7.8417912 0.226794 30 8 1.6812914e+09
-19.759323 -21.413731 1.5252006 1 9 1.6812914e+09
-10.419481 -7.8480883 -0.68407732 30 6 1.6812914e+09
-20.391529 -22.075888 -0.52396482 81 7 1.6812914e+09
-9.4701767 -7.125495 -1.4487921 8 4 1.6812914e+09
-10.434619 -11.29718 -1.3397381 6 5 1.6812914e+09
nan nan nan 0 2 1.6812914e+09
-1.3394417 -1.4452509 -0.30694941 6 3 1.6812914e+09
-1.2710708 -0.95548844 -0.41642722 6 0 1.6812914e+09
nan nan nan 0 1 1.6812914e+09
-11.859001 -8.8835287 3.4073477 4 14 1.6812914e+09
-20.406668 -22.161856 8.0517101 29 15 1.6812914e+09
-18.262276 -13.679005 3.6002085 8 12 1.6812914e+09
-20.294025 -21.947136 5.7982445 1 13 1.6812914e+09
-10.750995 -8.0507765 1.1720268 11 10 1.6812914e+09
nan nan nan 0 11 1.6812914e+09
-10.400846 -7.7829676 0.22613955 36 8 1.6812914e+09
-19.91551 -21.432426 1.5314808 1 9 1.6812914e+09
-10.416818 -7.789247 -0.68210816 30 6 1.6812914e+09
-20.531445 -22.072302 -0.52557921 79 7 1.6812914e+09
-9.5029449 -7.0983334 -1.4500091 8 4 1.6812914e+09
-10.479347 -11.262506 -1.3401731 6 5 1.6812914e+09
nan nan nan 0 2 1.6812914e+09
-1.3377564 -1.4333305 -0.30538335 6 3 1.6812914e+09
-1.2821463 -0.95681453 -0.41901374 6 0 1.6812914e+09
nan nan nan 0 1 1.6812914e+09
-11.878209 -8.8333578 3.4039786 3 14 1.6812914e+09
-20.518377 -22.12768 8.06528 34 15 1.6812914e+09
-18.254423 -13.57392 3.5892823 8 12 1.6812914e+09
-20.534382 -22.052202 5.8449507 1 13 1.6812914e+09
-10.646487 -7.9118066 1.1574283 9 10 1.6812914e+09
nan nan nan 0 11 1.6812914e+09
-10.407224 -7.728405 0.22565959 30 8 1.6812914e+09
-20.094576 -21.466839 1.5392004 1 9 1.6812914e+09
-10.427252 -7.7376285 -0.68092668 30 6 1.6812914e+09
-20.692087 -22.089901 -0.52771711 79 7 1.6812914e+09
-9.5269032 -7.0619774 -1.4497048 8 4 1.6812914e+09
-10.511787 -11.218588 -1.3393034 6 5 1.6812914e+09
nan nan nan 0 2 1.6812914e+09
-1.3410647 -1.426849 -0.30499184 6 3 1.6812914e+09
-1.2874204 -0.95376867 -0.41966033 6 0 1.6812914e+09
nan nan nan 0 1 1.6812914e+09
-11.886981 -8.7724066 3.3972402 3 14 1.6812914e+09
-20.688351 -22.147644 8.1001749 30 15 1.6812914e+09
-18.2663 -13.479069 3.5818682 8 12 1.6812914e+09
-20.64361 -22.007225 5.8530526 2 13 1.6812914e+09
-10.828373 -7.9884214 1.1742058 20 10 1.6812914e+09
nan nan nan 0 11 1.6812914e+09
-10.409991 -7.6742344 0.22513603 30 8 1.6812914e+09
-20.181372 -21.409286 1.5401163 4 9 1.6812914e+09
-10.418014 -7.6745353 -0.67856371 29 6 1.6812914e+09
-20.815369 -22.066637 -0.52889514 48 7 1.6812914e+09
-9.5554953 -7.0316205 -1.4503133 7 4 1.6812914e+09
-10.564554 -11.196321 -1.341043 4 5 1.6812914e+09
nan nan nan 0 2 1.6812914e+09
-1.3511164 -1.4275509 -0.30616638 7 3 1.6812914e+09
-1.3004769 -0.95641208 -0.42289349 6 0 1.6812914e+09
nan nan nan 0 1 1.6812914e+09
-30.29558 -22.199537 8.6492052 20 14 1.6812914e+09
-20.839426 -22.161619 8.1305466 36 15 1.6812914e+09
-18.285 -13.399447 3.5767951 7 12 1.6812914e+09
-20.804073 -22.031446 5.8778353 2 13 1.6812914e+09
-10.840117 -7.9388046 1.1724626 22 10 1.6812914e+09
nan nan nan 0 11 1.6812914e+09
-10.40916 -7.6204791 0.22456881 30 8 1.6812914e+09
nan nan nan 0 9 1.6812914e+09
-10.417209 -7.6207862 -0.67685711 29 6 1.6812914e+09
-11.79887 -12.418096 -0.2983925 36 7 1.6812914e+09
-9.5847712 -7.0042863 -1.4512261 7 4 1.6812914e+09
-10.596479 -11.155808 -1.3403906 8 5 1.6812914e+09
nan nan nan 0 2 1.6812914e+09
-1.3475946 -1.4138693 -0.30420882 7 3 1.6812914e+09
-1.3057594 -0.95328856 -0.42354009 4 0 1.6812914e+09
nan nan nan 0 1 1.6812914e+09
-30.510798 -22.19396 8.6885118 14 14 1.6812914e+09
-20.994692 -22.171173 8.1609182 30 15 1.6812914e+09
-18.26177 -13.284703 3.5631373 6 12 1.6812914e+09
-20.97047 -22.052965 5.9030952 1 13 1.6812914e+09
-10.854297 -7.8940263 1.1711553 25 10 1.6812914e+09
-21.202177 -22.226727 3.7619307 3 11 1.6812914e+09
-10.417498 -7.5708747 0.22417614 29 8 1.6812914e+09
-21.283741 -22.273329 1.6127324 14 9 1.6812914e+09
-10.421524 -7.5682435 -0.67541307 29 6 1.6812914e+09
-11.833508 -12.367801 -0.29817432 12 7 1.6812914e+09
-9.6111708 -6.9722443 -1.4515303 6 4 1.6812914e+09
-10.644183 -11.124095 -1.3412604 8 5 1.6812914e+09
nan nan nan 0 2 1.6812914e+09
-1.3542272 -1.410942 -0.30460033 6 3 1.6812914e+09
-1.3090791 -0.94872487 -0.42354009 6 0 1.6812914e+09
nan nan nan 0 1 1.6812914e+09
-30.738186 -22.195702 8.7311878 1 14 1.6812914e+09
-21.131943 -22.160679 8.1841812 33 15 1.6812914e+09
-18.271994 -13.194857 3.5561132 6 12 1.6812914e+09
-21.189877 -22.128542 5.9431291 7 13 1.6812914e+09
nan nan nan 0 10 1.6812914e+09
-21.295103 -22.16869 3.7646689 45 11 1.6812914e+09
-10.40868 -7.5063291 0.22339079 30 8 1.6812914e+09
-21.313301 -22.141203 1.6088072 43 9 1.6812914e+09
-10.424887 -7.5124836 -0.67383778 29 6 1.6812914e+09
-11.817657 -12.265203 -0.29669091 4 7 1.6812914e+09
-9.6467314 -6.9442167 -1.4530514 7 4 1.6812914e+09
-10.68122 -11.085077 -1.341043 9 5 1.6812914e+09
nan nan nan 0 2 1.6812914e+09
-1.3505852 -1.3973091 -0.30264273 7 3 1.6812914e+09
-1.3221922 -0.95119053 -0.42677325 6 0 1.6812914e+09
nan nan nan 0 1 1.6812914e+09
-30.957956 -22.182209 8.7704954 25 14 1.6812914e+09
-21.298336 -22.171917 8.2171383 26 15 1.6812914e+09
-18.280087 -13.099034 3.5483088 4 12 1.6812914e+09
-21.265728 -22.045431 5.9416995 40 13 1.6812914e+09
-10.424562 -7.4681234 1.1188618 6 10 1.6812914e+09
-21.336531 -22.049471 3.7576714 88 11 1.6812914e+09
-10.412458 -7.4539485 0.22291085 32 8 1.6812914e+09
-21.393934 -22.070257 1.6090689 60 9 1.6812914e+09
-10.416524 -7.4513607 -0.67160612 32 6 1.6812914e+09
-11.860397 -12.223877 -0.29669091 9 7 1.6812914e+09
-9.6688938 -6.909059 -1.4527472 6 4 1.6812914e+09
-10.716381 -11.04415 -1.340608 9 5 1.6812914e+09
nan nan nan 0 2 1.6812914e+09
-1.3556974 -1.3923495 -0.30264273 8 3 1.6812914e+09
-1.3215708 -0.94376671 -0.42547998 6 0 1.6812914e+09
nan nan nan 0 1 1.6812914e+09
-17.46398 -12.422316 4.9318943 7 14 1.6812914e+09
-21.41925 -22.142574 8.2339392 26 15 1.6812914e+09
-17.542898 -12.478426 3.3965118 19 12 1.6812914e+09
-21.479328 -22.111912 5.9798265 32 13 1.6812914e+09
nan nan nan 0 10 1.6812914e+09
-21.662703 -22.23081 3.801482 48 11 1.6812914e+09
-10.409886 -7.3972898 0.22230002 32 8 1.6812914e+09
-21.697515 -22.227726 1.6260781 46 9 1.6812914e+09
-10.422113 -7.4005032 -0.67029333 32 6 1.6812914e+09
-11.864573 -12.143058 -0.29573101 9 7 1.6812914e+09
-9.6929512 -6.8752666 -1.4527472 6 4 1.6812914e+09
-10.768787 -11.020931 -1.3423477 9 5 1.6812914e+09
nan nan nan 0 2 1.6812914e+09
-1.3622738 -1.3893759 -0.30303425 8 3 1.6812914e+09
-1.3426019 -0.95169783 -0.43129963 6 0 1.6812914e+09
nan nan nan 0 1 1.6812914e+09
-31.239433 -22.05546 8.8064327 18 14 1.6812914e+09
-21.466084 -22.036528 8.2223082 18 15 1.6812914e+09
-31.213385 -22.037056 6.0324764 20 12 1.6812914e+09
-21.709095 -22.192963 6.022244 46 13 1.6812914e+09
-10.437784 -7.3678818 1.114722 6 10 1.6812914e+09
-21.786692 -22.210232 3.8103051 55 11 1.6812914e+09
-10.415215 -7.3465028 0.2218637 32 8 1.6812914e+09
-21.848469 -22.226639 1.6315733 43 9 1.6812914e+09
-10.423391 -7.3468218 -0.66871804 30 6 1.6812914e+09
-11.863071 -12.057012 -0.29464024 8 7 1.6812914e+09
-9.7148609 -6.8399615 -1.452443 6 4 1.6812914e+09
-10.805445 -10.981497 -1.3421302 9 5 1.6812914e+09
nan nan nan 0 2 1.6812914e+09
-1.3616827 -1.3795664 -0.30185971 6 3 1.6812914e+09
-1.3399862 -0.94284284 -0.42935973 6 0 1.6812914e+09
nan nan nan 0 1 1.6812914e+09
-31.2346 -21.897209 8.7845335 36 14 1.6812914e+09
-21.615118 -22.042831 8.2513866 11 15 1.6812914e+09
-18.20573 -12.764111 3.508116 3 12 1.6812914e+09
-21.872095 -22.211792 6.0470266 43 13 1.6812914e+09
-10.677622 -7.4814301 1.1376003 38 10 1.6812914e+09
-21.982647 -22.25411 3.8309934 43 11 1.6812914e+09
-10.414949 -7.2947197 0.22134013 32 8 1.6812914e+09
-21.730675 -21.960606 1.6173118 54 9 1.6812914e+09
-10.427242 -7.297904 -0.66740531 30 6 1.6812914e+09
-11.794281 -11.903635 -0.29189149 23 7 1.6812914e+09
-9.7415581 -6.8105512 -1.4530514 7 4 1.6812914e+09
-10.854067 -10.957994 -1.3436524 11 5 1.6812914e+09
nan nan nan 0 2 1.6812914e+09
-1.3630171 -1.3712944 -0.30107668 6 3 1.6812914e+09
-1.3571386 -0.9478243 -0.43388614 6 0 1.6812914e+09
nan nan nan 0 1 1.6812914e+09
-31.250856 -21.746305 8.7676878 38 14 1.6812914e+09
-21.856506 -22.133959 8.3140688 14 15 1.6812914e+09
-31.305906 -21.784594 6.0215502 11 12 1.6812914e+09
-22.027245 -22.213739 6.0684733 43 13 1.6812914e+09
-10.64717 -7.4075851 1.1317173 36 10 1.6812914e+09
-22.100437 -22.217707 3.8379908 50 11 1.6812914e+09
-10.41572 -7.2412019 0.22081657 39 8 1.6812914e+09
-21.551716 -21.628151 1.59834 35 9 1.6812914e+09
-10.425996 -7.2429476 -0.66569871 32 6 1.6812914e+09
-11.825169 -11.851771 -0.29162967 35 7 1.6812914e+09
-9.7632341 -6.7750912 -1.4527472 6 4 1.6812914e+09
-10.892399 -10.916375 -1.3434349 11 5 1.6812914e+09
nan nan nan 0 2 1.6812914e+09
-1.3625677 -1.36128 -0.29990211 7 3 1.6812914e+09
-1.3703694 -0.94994974 -0.43711925 7 0 1.6812914e+09
nan nan nan 0 1 1.6812914e+09
-31.232363 -21.572021 8.7412958 32 14 1.6812914e+09
-21.954065 -22.078083 8.3218231 11 15 1.6812914e+09
-31.26391 -21.593794 5.9989171 11 12 1.6812914e+09
-22.180941 -22.213139 6.0894432 41 13 1.6812914e+09
-10.608656 -7.3232455 1.1247449 32 10 1.6812914e+09
-22.105867 -22.068539 3.8255172 42 11 1.6812914e+09
-10.411322 -7.1816921 0.22016209 34 8 1.6812914e+09
-21.710421 -21.628315 1.6042279 43 9 1.6812914e+09
-10.429859 -7.1891041 -0.66425467 30 6 1.6812914e+09
-12.079012 -12.022078 -0.29686543 7 7 1.6812914e+09
-9.7982206 -6.7462955 -1.4542685 6 4 1.6812914e+09
-10.941027 -10.888832 -1.3447397 9 5 1.6812914e+09
nan nan nan 0 2 1.6812914e+09
-1.3708085 -1.360002 -0.30068514 6 3 1.6812914e+09
-1.3836316 -0.95199448 -0.44035238 9 0 1.6812914e+09
nan nan nan 0 1 1.6812914e+09
-31.361456 -21.491829 8.7553339 4 14 1.6812914e+09
-22.01433 -21.97699 8.3140688 14 15 1.6812914e+09
-18.295774 -12.538856 3.499531 3 12 1.6812914e+09
-22.338772 -22.20783 6.1104131 42 13 1.6812914e+09
-10.432795 -7.1482444 1.1033918 9 10 1.6812914e+09
-21.983944 -21.786469 3.7905295 46 11 1.6812914e+09
-10.419826 -7.1340103 0.21981303 33 8 1.6812914e+09
-22.454796 -22.214443 1.6535544 33 9 1.6812914e+09
-10.423981 -7.1315122 -0.66228557 30 6 1.6812914e+09
-12.110238 -11.969294 -0.29660362 7 7 1.6812914e+09
-9.8258076 -6.7148523 -1.4548769 7 4 1.6812914e+09
-10.977199 -10.848823 -1.3445222 8 5 1.6812914e+09
nan nan nan 0 2 1.6812914e+09
-1.377539 -1.3567054 -0.30107668 7 3 1.6812914e+09
-1.3929332 -0.95123833 -0.44229224 11 0 1.6812914e+09
nan nan nan 0 1 1.6812914e+09
-32.640896 -22.20149 9.0911264 22 14 1.6812914e+09
-22.317266 -22.124479 8.3993673 35 15 1.6812914e+09
-18.296555 -12.445752 3.4913363 3 12 1.6812914e+09
-22.482515 -22.195248 6.1285243 35 13 1.6812914e+09
-10.432969 -7.0949817 1.100777 8 10 1.6812914e+09
-22.2756 -21.921974 3.8276467 40 11 1.6812914e+09
-10.419853 -7.0807395 0.21928947 32 8 1.6812914e+09
-22.603432 -22.205917 1.6587881 34 9 1.6812914e+09
-10.428155 -7.0810604 -0.66097277 30 6 1.6812914e+09
-12.157296 -11.932203 -0.29673454 7 7 1.6812914e+09
-9.8512411 -6.6819053 -1.4551811 6 4 1.6812914e+09
-11.013225 -10.808695 -1.3443048 9 5 1.6812914e+09
nan nan nan 0 2 1.6812914e+09
-1.3857887 -1.3553499 -0.30185971 6 3 1.6812914e+09
-1.4042469 -0.95178175 -0.44487876 12 0 1.6812914e+09
nan nan nan 0 1 1.6812914e+09
-32.873669 -22.192368 9.1343651 22 14 1.6812914e+09
-22.501047 -22.151505 8.4394321 30 15 1.6812914e+09
-31.287359 -21.121569 5.9598947 20 12 1.6812914e+09
-22.621181 -22.176777 6.145205 35 13 1.6812914e+09
-10.447349 -7.0515552 1.0996876 9 10 1.6812914e+09
-22.715416 -22.207113 3.8906245 36 11 1.6812914e+09
-10.427926 -7.033145 0.21894044 33 8 1.6812914e+09
-22.761211 -22.205345 1.6646758 30 9 1.6812914e+09
-10.430034 -7.0292711 -0.65952873 32 6 1.6812914e+09
-12.213189 -11.903654 -0.29708356 7 7 1.6812914e+09
-9.88274 -6.6530194 -1.4563981 6 4 1.6812914e+09
-11.050886 -10.770185 -1.3443048 9 5 1.6812914e+09
nan nan nan 0 2 1.6812914e+09
-1.3885086 -1.3490222 -0.30146819 6 3 1.6812914e+09
-1.4095659 -0.94822013 -0.44552541 11 0 1.6812914e+09
nan nan nan 0 1 1.6812914e+09
-33.090755 -22.179523 9.1742325 28 14 1.6812914e+09
-22.660698 -22.161209 8.4717426 40 15 1.6812914e+09
-18.313152 -12.275557 3.4784589 3 12 1.6812914e+09
-22.770187 -22.175276 6.1656985 1 13 1.6812914e+09
-10.444998 -6.9970284 1.096855 9 10 1.6812914e+09
-22.899605 -22.231409 3.9088788 35 11 1.6812914e+09
-10.422111 -6.9790587 0.21832958 34 8 1.6812914e+09
-22.892082 -22.185354 1.6688627 34 9 1.6812914e+09
-10.428387 -6.9779892 -0.65795344 32 6 1.6812914e+09
-12.243893 -11.850517 -0.29682177 6 7 1.6812914e+09
-9.9109364 -6.6243458 -1.4573108 6 4 1.6812914e+09
-11.091907 -10.738678 -1.3449571 9 5 1.6812914e+09
nan nan nan 0 2 1.6812914e+09
-1.3967549 -1.3476044 -0.30225122 6 3 1.6812914e+09
-1.4088476 -0.94061625 -0.44423214 8 0 1.6812914e+09
nan nan nan 0 1 1.6812914e+09
-33.356617 -22.189358 9.2264547 29 14 1.6812914e+09
-22.831459 -22.172842 8.5066376 32 15 1.6812914e+09
-31.74498 -21.117357 6.019599 20 12 1.6812914e+09
-22.926828 -22.172443 6.1871448 1 13 1.6812914e+09
-10.517918 -6.9954472 1.1020844 23 10 1.6812914e+09
-23.030653 -22.203012 3.9180062 34 11 1.6812914e+09
-10.423509 -6.9274216 0.21784966 34 8 1.6812914e+09
-23.026939 -22.160715 1.6730496 29 9 1.6812914e+09
-10.436041 -6.9304972 -0.65690321 32 6 1.6812914e+09
-12.297796 -11.819835 -0.29712719 6 7 1.6812914e+09
-9.929863 -6.5869665 -1.4567024 7 4 1.6812914e+09
-11.132986 -10.699679 -1.3451746 9 5 1.6812914e+09
nan nan nan 0 2 1.6812914e+09
-1.4014504 -1.3427206 -0.30225122 6 3 1.6812914e+09
-1.4201802 -0.94102007 -0.44681865 6 0 1.6812914e+09
nan nan nan 0 1 1.6812914e+09
-33.549751 -22.149284 9.258462 20 14 1.6812914e+09
-22.955648 -22.138285 8.524086 32 15 1.6812914e+09
-32.032825 -21.1479 6.0601826 26 12 1.6812914e+09
-23.021786 -22.10928 6.1919112 1 13 1.6812914e+09
-10.452013 -6.8965125 1.0924972 16 10 1.6812914e+09
-23.211964 -22.222031 3.935652 34 11 1.6812914e+09
-10.427958 -6.8754144 0.21741334 34 8 1.6812914e+09
-23.205477 -22.169312 1.6801151 35 9 1.6812914e+09
-10.434268 -6.8743491 -0.65519667 33 6 1.6812914e+09
-12.380558 -11.816541 -0.29813072 6 7 1.6812914e+09
-9.9560127 -6.5518928 -1.4570066 7 4 1.6812914e+09
-11.168467 -10.659032 -1.3449571 8 5 1.6812914e+09
nan nan nan 0 2 1.6812914e+09
-1.4096986 -1.3412328 -0.30303425 6 3 1.6812914e+09
-1.4214373 -0.93473214 -0.446172 6 0 1.6812914e+09
nan nan nan 0 1 1.6812914e+09
-33.659241 -22.044853 9.2663231 7 14 1.6812914e+09
-23.137798 -22.150875 8.5615644 33 15 1.6812914e+09
-32.281582 -21.142637 6.0925708 20 12 1.6812914e+09
-22.072559 -21.042423 5.9154863 28 13 1.6812914e+09
-10.484358 -6.8654423 1.0933688 13 10 1.6812914e+09
-23.384691 -22.231497 3.9517767 22 11 1.6812914e+09
-10.422607 -6.8198147 0.21680251 33 8 1.6812914e+09
-23.35335 -22.155197 1.6852177 32 9 1.6812914e+09
-10.433123 -6.8214936 -0.65362132 33 6 1.6812914e+09
-12.50879 -11.85581 -0.30022499 6 7 1.6812914e+09
-9.9705105 -6.511673 -1.4557897 6 4 1.6812914e+09
-11.205606 -10.619983 -1.3449571 7 5 1.6812914e+09
nan nan nan 0 2 1.6812914e+09
-1.4054179 -1.3278041 -0.30107668 6 3 1.6812914e+09
-1.4469522 -0.94425982 -0.45328489 16 0 1.6812914e+09
nan nan nan 0 1 1.6812914e+09
-34.134514 -22.194708 9.3769436 35 14 1.6812914e+09
-23.302114 -22.160582 8.5951681 33 15 1.6812914e+09
-32.515072 -21.141806 6.1233988 14 12 1.6812914e+09
-22.291876 -21.110888 5.9555206 27 13 1.6812914e+09
-10.439339 -6.784029 1.0861784 16 10 1.6812914e+09
-21.492046 -20.289301 3.6195462 7 11 1.6812914e+09
-10.43049 -6.7756853 0.21649709 33 8 1.6812914e+09
-23.508436 -22.154696 1.6911056 35 9 1.6812914e+09
-10.438932 -6.7759871 -0.65257114 32 6 1.6812914e+09
-12.763009 -12.012571 -0.30532983 7 7 1.6812914e+09
-9.9962139 -6.4812727 -1.4563981 7 4 1.6812914e+09
-11.242573 -10.584471 -1.3451746 7 5 1.6812914e+09
nan nan nan 0 2 1.6812914e+09
-1.4154341 -1.3279713 -0.30225122 6 3 1.6812914e+09
-1.4340131 -0.92871797 -0.44811189 12 0 1.6812914e+09
nan nan nan 0 1 1.6812914e+09
-34.389877 -22.190325 9.4257975 32 14 1.6812914e+09
-23.465353 -22.16037 8.626832 35 15 1.6812914e+09
-19.105591 -12.32893 3.5877213 7 12 1.6812914e+09
-22.438719 -21.101887 5.9750609 28 13 1.6812914e+09
-10.445035 -6.7385755 1.0844353 16 10 1.6812914e+09
-23.841606 -22.351166 4.0025849 11 11 1.6812914e+09
-10.426764 -6.7216315 0.21592988 32 8 1.6812914e+09
-23.678577 -22.159513 1.6977783 29 9 1.6812914e+09
-10.445729 -6.728693 -0.65152091 33 6 1.6812914e+09
-12.443167 -11.633784 -0.29673454 50 7 1.6812914e+09
-10.020864 -6.4476824 -1.4567024 6 4 1.6812914e+09
-11.272177 -10.538358 -1.3443048 6 5 1.6812914e+09
nan nan nan 0 2 1.6812914e+09
-1.4182585 -1.3213351 -0.30185971 6 3 1.6812914e+09
nan nan nan 0 0 1.6812914e+09
nan nan nan 0 1 1.6812914e+09
-34.643562 -22.183115 9.4740887 26 14 1.6812914e+09
-23.621824 -22.152679 8.6559114 33 15 1.6812914e+09
-19.331516 -12.379337 3.6220613 8 12 1.6812914e+09
-22.578598 -21.085421 5.9926949 28 13 1.6812914e+09
-10.439126 -6.6832786 1.0813849 19 10 1.6812914e+09
-23.865 -22.217073 3.9934576 42 11 1.6812914e+09
-10.433318 -6.6744208 0.21558084 34 8 1.6812914e+09
-23.83807 -22.153215 1.7036661 26 9 1.6812914e+09
-10.448116 -6.6787472 -0.65020818 32 6 1.6812914e+09
-12.472713 -11.580071 -0.29647273 75 7 1.6812914e+09
-10.039126 -6.4099941 -1.4560939 6 4 1.6812914e+09
-11.321667 -10.510812 -1.345827 6 5 1.6812914e+09
nan nan nan 0 2 1.6812914e+09
-1.4210538 -1.3146952 -0.30146819 6 3 1.6812914e+09
nan nan nan 0 0 1.6812914e+09
nan nan nan 0 1 1.6812914e+09
-34.90379 -22.178324 9.524065 22 14 1.6812914e+09
-23.789129 -22.154041 8.6888676 39 15 1.6812914e+09
-19.505919 -12.395209 3.6466453 8 12 1.6812914e+09
-22.742023 -21.08993 6.0165243 22 13 1.6812914e+09
-10.445572 -6.6361165 1.0796418 22 10 1.6812914e+09
-24.049898 -22.233032 4.0114079 32 11 1.6812914e+09
-10.431227 -6.6218886 0.21505725 34 8 1.6812914e+09
-24.001476 -22.14946 1.7098155 27 9 1.6812914e+09
-10.452391 -6.6302032 -0.64902669 30 6 1.6812914e+09
-12.50037 -11.520722 -0.29612368 76 7 1.6812914e+09
-10.063537 -6.3762398 -1.4563981 6 4 1.6812914e+09
-11.356453 -10.465869 -1.3453921 6 5 1.6812914e+09
nan nan nan 0 2 1.6812914e+09
-1.4220057 -1.3063772 -0.30068514 6 3 1.6812914e+09
-1.4844981 -0.93943745 -0.4610444 4 0 1.6812914e+09
nan nan nan 0 1 1.6812914e+09
-35.141731 -22.157692 9.5678635 18 14 1.6812914e+09
-23.972689 -22.169266 8.7276402 29 15 1.6812914e+09
-19.632622 -12.379725 3.6622543 8 12 1.6812914e+09
-22.916584 -21.103527 6.0432138 1 13 1.6812914e+09
-10.444539 -6.5818572 1.0770271 23 10 1.6812914e+09
-24.196815 -22.212723 4.0229688 38 11 1.6812914e+09
-10.436389 -6.5716271 0.21466459 32 8 1.6812914e+09
-24.176373 -22.147364 1.7164885 26 9 1.6812914e+09
-10.447036 -6.5732388 -0.64718884 33 6 1.6812914e+09
-12.525762 -11.463513 -0.29577464 75 7 1.6812914e+09
-10.08684 -6.3393126 -1.4563981 6 4 1.6812914e+09
-11.392917 -10.426163 -1.3453921 6 5 1.6812914e+09
nan nan nan 0 2 1.6812914e+09
-1.4247369 -1.2997371 -0.30029362 6 3 1.6812914e+09
-1.4980005 -0.94066095 -0.46427754 4 0 1.6812914e+09
nan nan nan 0 1 1.6812914e+09
-35.379681 -22.126907 9.6105394 11 14 1.6812914e+09
-24.124935 -22.146587 8.7534876 35 15 1.6812914e+09
-19.790922 -12.378386 3.6833265 6 12 1.6812914e+09
-23.064411 -21.083979 6.061801 11 13 1.6812914e+09
-10.450556 -6.5347977 1.075284 27 10 1.6812914e+09
-24.349382 -22.196676 4.0354428 30 11 1.6812914e+09
-10.433824 -6.5192671 0.21414101 33 8 1.6812914e+09
-24.262762 -22.071234 1.7171426 35 9 1.6812914e+09
-10.442384 -6.5195475 -0.64548224 34 6 1.6812914e+09
-12.5657 -11.419721 -0.29577464 57 7 1.6812914e+09
-10.111012 -6.3053765 -1.4567024 6 4 1.6812914e+09
-11.434769 -10.391357 -1.3460444 6 5 1.6812914e+09
nan nan nan 0 2 1.6812914e+09
-1.4310912 -1.2964181 -0.30068514 6 3 1.6812914e+09
-1.5115293 -0.94180161 -0.4675107 4 0 1.6812914e+09
nan nan nan 0 1 1.6812914e+09
-35.670193 -22.144369 9.6695004 1 14 1.6812914e+09
-24.296375 -22.155979 8.7890291 29 15 1.6812914e+09
-19.951447 -12.386922 3.7055693 4 12 1.6812914e+09
-13.591565 -12.339458 3.5582519 4 13 1.6812914e+09
-10.450023 -6.483839 1.0728872 26 10 1.6812914e+09
-24.27404 -21.973305 4.010191 36 11 1.6812914e+09
-10.440513 -6.4754105 0.2138356 33 8 1.6812914e+09
-24.358049 -22.010748 1.7187128 43 9 1.6812914e+09
-10.442724 -6.4717355 -0.64416951 33 6 1.6812914e+09
-12.640734 -11.407616 -0.29660362 15 7 1.6812914e+09
-10.131866 -6.271812 -1.4567024 6 4 1.6812914e+09
-11.471014 -10.355051 -1.3462619 6 5 1.6812914e+09
nan nan nan 0 2 1.6812914e+09
-1.4319443 -1.2881032 -0.29990211 6 3 1.6812914e+09
-1.510697 -0.93398386 -0.46621743 7 0 1.6812914e+09
nan nan nan 0 1 1.6812914e+09
-35.985809 -22.166641 9.7340755 20 14 1.6812914e+09
-24.221428 -21.933226 8.7341022 35 15 1.6812914e+09
-20.127024 -12.398788 3.7301533 3 12 1.6812914e+09
-13.687403 -12.339608 3.572073 6 13 1.6812914e+09
-10.45662 -6.4400091 1.0713619 29 10 1.6812914e+09
-24.328457 -21.868534 4.0065403 38 11 1.6812914e+09
-10.431119 -6.419281 0.21318114 34 8 1.6812914e+09
-24.365986 -21.863882 1.7138716 36 9 1.6812914e+09
-10.44611 -6.4234767 -0.64298803 33 6 1.6812914e+09
-13.110197 -11.752843 -0.30672601 8 7 1.6812914e+09
-10.143123 -6.2299151 -1.4551811 6 4 1.6812914e+09
-11.518213 -10.324924 -1.3475666 7 5 1.6812914e+09
nan nan nan 0 2 1.6812914e+09
-1.4327568 -1.2797984 -0.29911909 6 3 1.6812914e+09
-1.5364404 -0.94284081 -0.47333032 11 0 1.6812914e+09
nan nan nan 0 1 1.6812914e+09
-36.27499 -22.170467 9.7913513 25 14 1.6812914e+09
-24.281677 -21.834005 8.7282858 34 15 1.6812914e+09
-20.25025 -12.377388 3.744982 4 12 1.6812914e+09
-13.781578 -12.3376 3.5854177 8 13 1.6812914e+09
-10.457784 -6.3904867 1.0691831 30 10 1.6812914e+09
-24.31024 -21.699188 3.9910235 36 11 1.6812914e+09
-10.436395 -6.3724113 0.21283208 34 8 1.6812914e+09
-23.920307 -21.313581 1.6772366 1 9 1.6812914e+09
-10.447153 -6.3739738 -0.64167523 34 6 1.6812914e+09
-13.20154 -11.751896 -0.30790406 8 7 1.6812914e+09
-10.162688 -6.1931806 -1.4548769 6 4 1.6812914e+09
-11.543026 -10.274717 -1.3462619 7 5 1.6812914e+09
nan nan nan 0 2 1.6812914e+09
-1.4372154 -1.2747893 -0.29911909 6 3 1.6812914e+09
-1.5335305 -0.93371034 -0.47139046 21 0 1.6812914e+09
nan nan nan 0 1 1.6812914e+09
-36.568802 -22.17507 9.8497505 32 14 1.6812914e+09
-24.264086 -21.665462 8.694684 33 15 1.6812914e+09
-20.344007 -12.337354 3.7543473 3 12 1.6812914e+09
-13.864906 -12.325302 3.5959027 8 13 1.6812914e+09
-10.452339 -6.337162 1.0663505 30 10 1.6812914e+09
-24.304136 -21.541765 3.9776371 33 11 1.6812914e+09
-10.435056 -6.3216991 0.21235214 34 8 1.6812914e+09
-24.045036 -21.27463 1.6807691 1 9 1.6812914e+09
-10.454389 -6.3284202 -0.64075631 34 6 1.6812914e+09
-13.332356 -11.785229 -0.30999833 11 7 1.6812914e+09
-10.190617 -6.1615191 -1.4557897 6 4 1.6812914e+09
-11.563895 -10.221162 -1.3445222 1 5 1.6812914e+09
nan nan nan 0 2 1.6812914e+09
-1.4472033 -1.2746741 -0.30029362 6 3 1.6812914e+09
-1.5450535 -0.93333828 -0.47397694 15 0 1.6812914e+09
nan nan nan 0 1 1.6812914e+09
-36.858913 -22.175375 9.9070263 32 14 1.6812914e+09
-24.231153 -21.484484 8.6559114 33 15 1.6812914e+09
-36.842976 -22.165771 6.7891212 28 12 1.6812914e+09
-13.975904 -12.336937 3.6135368 8 13 1.6812914e+09
-10.459457 -6.2916532 1.0648253 25 10 1.6812914e+09
-24.479757 -21.545341 3.9940662 22 11 1.6812914e+09
-10.435633 -6.2723618 0.21191584 35 8 1.6812914e+09
-10.382592 -9.118454 0.72236699 15 9 1.6812914e+09
-10.444308 -6.2726135 -0.63878721 34 6 1.6812914e+09
-10.404038 -9.1308784 -0.24101771 35 7 1.6812914e+09
-10.195038 -6.1157007 -1.4533558 6 4 1.6812914e+09
-10.431795 -9.1552391 -1.2088306 22 5 1.6812914e+09
nan nan nan 0 2 1.6812914e+09
-1.4497893 -1.2679845 -0.29990211 4 3 1.6812914e+09
-1.537939 -0.92174214 -0.47074381 7 0 1.6812914e+09
nan nan nan 0 1 1.6812914e+09
-37.151562 -22.175171 9.9648628 33 14 1.6812914e+09
-24.38937 -21.473192 8.6856365 20 15 1.6812914e+09
-37.197895 -22.202814 6.8402405 40 12 1.6812914e+09
-14.076082 -12.33824 3.6283112 8 13 1.6812914e+09
-10.447134 -6.2346897 1.061339 25 10 1.6812914e+09
-25.442213 -22.235521 4.1385803 25 11 1.6812914e+09
-10.433846 -6.2218175 0.2114359 34 8 1.6812914e+09
-10.39931 -9.069025 0.72132027 34 9 1.6812914e+09
-10.448981 -6.2258968 -0.63773698 35 6 1.6812914e+09
-10.403823 -9.0665779 -0.24027599 36 7 1.6812914e+09
-10.220587 -6.0826135 -1.4539641 6 4 1.6812914e+09
-10.414886 -9.0762091 -1.2031766 32 5 1.6812914e+09
nan nan nan 0 2 1.6812914e+09
-1.4579275 -1.2661632 -0.30068514 6 3 1.6812914e+09
nan nan nan 0 0 1.6812914e+09
nan nan nan 0 1 1.6812914e+09
-37.440453 -22.170713 10.021578 29 14 1.6812914e+09
-25.278618 -22.100161 8.9751368 11 15 1.6812914e+09
-37.496151 -22.203678 6.8808241 38 12 1.6812914e+09
-14.169037 -12.332545 3.6411793 7 13 1.6812914e+09
-10.447401 -6.1854992 1.0591602 26 10 1.6812914e+09
-25.620863 -22.234415 4.1550093 32 11 1.6812914e+09
-10.446895 -6.1802688 0.21126136 35 8 1.6812914e+09
-10.393169 -8.9999704 0.71870351 27 9 1.6812914e+09
-10.457754 -6.1817641 -0.63694936 38 6 1.6812914e+09
-10.403283 -9.002389 -0.23953426 38 7 1.6812914e+09
-10.235346 -6.0431156 -1.4530514 6 4 1.6812914e+09
-10.425793 -9.0218649 -1.2007847 29 5 1.6812914e+09
nan nan nan 0 2 1.6812914e+09
-1.4660703 -1.2643002 -0.30146819 7 3 1.6812914e+09
nan nan nan 0 0 1.6812914e+09
nan nan nan 0 1 1.6812914e+09
-37.716835 -22.148052 10.0738 26 14 1.6812914e+09
-25.521761 -22.14826 9.0326481 29 15 1.6812914e+09
-37.700794 -22.138617 6.9034572 22 12 1.6812914e+09
-14.282838 -12.339911 3.6588132 6 13 1.6812914e+09
-10.454967 -6.1383405 1.0576349 28 10 1.6812914e+09
-25.619469 -22.069088 4.1416225 30 11 1.6812914e+09
-10.445759 -6.128027 0.21078143 36 8 1.6812914e+09
-10.393909 -8.9341412 0.71647918 26 9 1.6812914e+09
-10.458802 -6.1307716 -0.63563657 35 6 1.6812914e+09
-10.402087 -8.9348698 -0.23874889 39 7 1.6812914e+09
-10.265994 -6.0105743 -1.4542685 6 4 1.6812914e+09
-10.436127 -8.9641123 -1.1981752 32 5 1.6812914e+09
nan nan nan 0 2 1.6812914e+09
-1.4763103 -1.2637488 -0.30264273 6 3 1.6812914e+09
-1.5664361 -0.91627228 -0.47656345 7 0 1.6812914e+09
nan nan nan 0 1 1.6812914e+09
-37.833912 -22.039558 10.084469 1 14 1.6812914e+09
-25.715992 -22.15995 9.0740051 28 15 1.6812914e+09
-38.125637 -22.209471 6.9670634 20 12 1.6812914e+09
-14.385416 -12.341127 3.6740642 4 13 1.6812914e+09
-10.450503 -6.0867715 1.0550202 33 10 1.6812914e+09
-25.975403 -22.218281 4.1866503 39 11 1.6812914e+09
-10.44548 -6.0789576 0.21034512 36 8 1.6812914e+09
-10.398453 -8.8751059 0.71464747 27 9 1.6812914e+09
-10.462873 -6.0841885 -0.63458639 36 6 1.6812914e+09
-10.389483 -8.8611832 -0.23774539 40 7 1.6812914e+09
-10.254723 -5.9560132 -1.4497048 6 4 1.6812914e+09
-10.437043 -8.9017591 -1.1946959 34 5 1.6812914e+09
nan nan nan 0 2 1.6812914e+09
-1.4788349 -1.2569842 -0.30225122 6 3 1.6812914e+09
-1.6009736 -0.92894912 -0.48626286 9 0 1.6812914e+09
nan nan nan 0 1 1.6812914e+09
-13.016448 -7.523118 3.4573236 3 14 1.6812914e+09
-25.886761 -22.150139 9.1069613 38 15 1.6812914e+09
-38.331219 -22.150377 6.9904771 20 12 1.6812914e+09
-14.480705 -12.335411 3.6874087 3 13 1.6812914e+09
-10.447963 -6.0365534 1.0526234 36 10 1.6812914e+09
-26.166168 -22.231649 4.205513 32 11 1.6812914e+09
-10.447151 -6.0312147 0.20995244 36 8 1.6812914e+09
-10.397 -8.8113031 0.71242315 25 9 1.6812914e+09
-10.462419 -6.0351572 -0.6332736 36 6 1.6812914e+09
-10.393653 -8.8022394 -0.23713456 36 7 1.6812914e+09
-10.288353 -5.9276128 -1.4515303 7 4 1.6812914e+09
-10.426251 -8.8298492 -1.189912 34 5 1.6812914e+09
nan nan nan 0 2 1.6812914e+09
-1.482995 -1.2520733 -0.30225122 6 3 1.6812914e+09
-1.5916418 -0.91613877 -0.4823831 8 0 1.6812914e+09
nan nan nan 0 1 1.6812914e+09
-13.108952 -7.5186901 3.4752924 6 14 1.6812914e+09
-26.083347 -22.16898 9.1502571 29 15 1.6812914e+09
-38.269505 -21.945761 6.9658928 1 12 1.6812914e+09
-25.996069 -22.001236 6.6070242 25 13 1.6812914e+09
-10.453844 -5.9913802 1.0510982 34 10 1.6812914e+09
-26.357399 -22.236198 4.2237678 28 11 1.6812914e+09
-10.456248 -5.9903264 0.20973429 38 8 1.6812914e+09
-10.395611 -8.7510414 0.71032971 26 9 1.6812914e+09
-10.467206 -5.9917502 -0.63235468 36 6 1.6812914e+09
-10.393715 -8.7401543 -0.23643646 32 7 1.6812914e+09
-10.297181 -5.8873057 -1.4500091 7 4 1.6812914e+09
-10.426895 -8.7711668 -1.1866502 35 5 1.6812914e+09
nan nan nan 0 2 1.6812914e+09
-1.4930218 -1.2516613 -0.30342579 4 3 1.6812914e+09
-1.6053215 -0.91655427 -0.48561621 4 0 1.6812914e+09
nan nan nan 0 1 1.6812914e+09
-13.219819 -7.5210619 3.4977534 8 14 1.6812914e+09
-26.256536 -22.158806 9.1838598 32 15 1.6812914e+09
-38.049664 -21.643566 6.9120417 1 12 1.6812914e+09
-26.320684 -22.118803 6.6699352 1 13 1.6812914e+09
-10.445511 -5.9406796 1.0482657 35 10 1.6812914e+09
-26.535662 -22.228523 4.2398925 35 11 1.6812914e+09
-10.453187 -5.9402094 0.20925434 36 8 1.6812914e+09
-10.39737 -8.6906748 0.70836717 27 9 1.6812914e+09
-10.464174 -5.9416203 -0.63091063 35 6 1.6812914e+09
-10.393469 -8.6781778 -0.23573837 34 7 1.6812914e+09
-10.33278 -5.8598928 -1.4521388 8 4 1.6812914e+09
-10.424572 -8.7041483 -1.1827359 34 5 1.6812914e+09
nan nan nan 0 2 1.6812914e+09
-1.5049579 -1.2527788 -0.30499184 4 3 1.6812914e+09
-1.6148185 -0.91450918 -0.4875561 3 0 1.6812914e+09
nan nan nan 0 1 1.6812914e+09
-13.328741 -7.521554 3.5196533 8 14 1.6812914e+09
-26.459583 -22.172512 9.2278023 33 15 1.6812914e+09
-37.65398 -21.244894 6.8265829 7 12 1.6812914e+09
-26.527739 -22.135302 6.7028203 30 13 1.6812914e+09
-10.456366 -5.8962393 1.0471762 36 10 1.6812914e+09
-26.740894 -22.242092 4.2602763 28 11 1.6812914e+09
-10.459644 -5.8932695 0.20894893 36 8 1.6812914e+09
-10.402263 -8.6301823 0.7065354 28 9 1.6812914e+09
-10.470652 -5.8946557 -0.62999171 25 6 1.6812914e+09
-10.396766 -8.6195002 -0.23512754 28 7 1.6812914e+09
-10.375818 -5.8341408 -1.4551811 8 4 1.6812914e+09
-10.424223 -8.6422634 -1.1792567 33 5 1.6812914e+09
nan nan nan 0 2 1.6812914e+09
-1.5283165 -1.2632933 -0.308907 4 3 1.6812914e+09
nan nan nan 0 0 1.6812914e+09
nan nan nan 0 1 1.6812914e+09
-13.439137 -7.5190306 3.5415528 8 14 1.6812914e+09
-26.620502 -22.141802 9.2555885 20 15 1.6812914e+09
-37.942795 -21.224876 6.8648248 7 12 1.6812914e+09
-26.769327 -22.171001 6.7433305 35 13 1.6812914e+09
-10.500795 -5.8730736 1.0495731 16 10 1.6812914e+09
-26.914026 -22.227636 4.2754884 28 11 1.6812914e+09
-10.532525 -5.8859806 0.20999606 19 8 1.6812914e+09
-10.397647 -8.5652351 0.7041803 27 9 1.6812914e+09
-10.545662 -5.8884912 -0.6332736 16 6 1.6812914e+09
-10.393991 -8.5561371 -0.2343858 28 7 1.6812914e+09
-10.400455 -5.8003035 -1.4557897 9 4 1.6812914e+09
-10.421647 -8.5789032 -1.1755599 35 5 1.6812914e+09
nan nan nan 0 2 1.6812914e+09
-1.5555768 -1.2768017 -0.31360522 4 3 1.6812914e+09
nan nan nan 0 0 1.6812914e+09
nan nan nan 0 1 1.6812914e+09
-13.519379 -7.5051599 3.5561523 7 14 1.6812914e+09
-26.671442 -22.034943 9.2478352 11 15 1.6812914e+09
-38.185703 -21.194799 6.8960428 20 12 1.6812914e+09
-26.992413 -22.205303 6.7809815 32 13 1.6812914e+09
-10.625776 -5.8943567 1.0600317 14 10 1.6812914e+09
-27.137259 -22.253151 4.2986107 29 11 1.6812914e+09
-10.60664 -5.8813176 0.21108684 16 8 1.6812914e+09
-10.400882 -8.5101461 0.70247936 28 9 1.6812914e+09
-10.632834 -5.8909855 -0.63734317 14 6 1.6812914e+09
-10.402512 -8.5023966 -0.23390587 29 7 1.6812914e+09
-10.430488 -5.7717876 -1.4573108 9 4 1.6812914e+09
-10.419198 -8.5190639 -1.1720806 30 5 1.6812914e+09
nan nan nan 0 2 1.6812914e+09
-1.5963228 -1.3010845 -0.32104403 4 3 1.6812914e+09
nan nan nan 0 0 1.6812914e+09
nan nan nan 0 1 1.6812914e+09
-13.618056 -7.4978633 3.5752442 4 14 1.6812914e+09
-27.028242 -22.171495 9.3447657 34 15 1.6812914e+09
-38.404392 -21.141159 6.9221878 18 12 1.6812914e+09
-27.157181 -22.182371 6.8029046 35 13 1.6812914e+09
-10.747819 -5.9155145 1.0702726 19 10 1.6812914e+09
-24.719273 -20.125908 3.9040108 1 11 1.6812914e+09
-10.684055 -5.875567 0.21222125 16 8 1.6812914e+09
-10.39953 -8.4485903 0.70038593 28 9 1.6812914e+09
-10.725541 -5.8934984 -0.64167523 15 6 1.6812914e+09
-10.406902 -8.4455481 -0.23333867 28 7 1.6812914e+09
-10.463626 -5.7425046 -1.4591362 8 4 1.6812914e+09
-10.415552 -8.4525576 -1.1681665 27 5 1.6812914e+09
nan nan nan 0 2 1.6812914e+09
-1.6295933 -1.3188679 -0.32691678 8 3 1.6812914e+09
-1.6570935 -0.90809405 -0.49660885 3 0 1.6812914e+09
nan nan nan 0 1 1.6812914e+09
-13.721124 -7.4923038 3.5954592 2 14 1.6812914e+09
-27.219683 -22.170063 9.3841839 29 15 1.6812914e+09
-38.75322 -21.157238 6.9717455 11 12 1.6812914e+09
-27.308773 -22.147738 6.8214917 18 13 1.6812914e+09
-10.874376 -5.9333248 1.0807312 19 10 1.6812914e+09
-24.716053 -19.980209 3.8924499 1 11 1.6812914e+09
-10.777948 -5.8758411 0.21366106 16 8 1.6812914e+09
-10.403225 -8.3884697 0.69855416 28 9 1.6812914e+09
-10.80627 -5.8863845 -0.64521968 15 6 1.6812914e+09
-10.411022 -8.388773 -0.23277146 28 7 1.6812914e+09
-10.486782 -5.7053003 -1.4594405 8 4 1.6812914e+09
-10.412035 -8.3895731 -1.1644697 28 5 1.6812914e+09
-7.2114129 -3.91908 -1.5856322 3 2 1.6812914e+09
-1.6956695 -1.3627996 -0.33944535 11 3 1.6812914e+09
-1.6708677 -0.90806013 -0.49984199 3 0 1.6812914e+09
nan nan nan 0 1 1.6812914e+09
nan nan nan 0 14 1.6812914e+09
-27.413429 -22.161259 9.4229555 40 15 1.6812914e+09
-39.193188 -21.211325 7.0369139 7 12 1.6812914e+09
-27.259783 -21.942841 6.7890835 1 13 1.6812914e+09
-11.000167 -5.9522061 1.0911899 18 10 1.6812914e+09
-24.70784 -19.824253 3.8796718 3 11 1.6812914e+09
-10.864365 -5.8738389 0.21497001 14 8 1.6812914e+09
-10.403216 -8.3286896 0.69659156 27 9 1.6812914e+09
-10.90803 -5.8925195 -0.65007693 19 6 1.6812914e+09
-10.414874 -8.3320723 -0.23220424 29 7 1.6812914e+09
-10.532842 -5.682795 -1.4630915 7 4 1.6812914e+09
-10.410149 -8.3282738 -1.1609905 30 5 1.6812914e+09
-7.1090407 -3.8297925 -1.5599191 7 2 1.6812914e+09
-1.6910182 -1.3488563 -0.33748776 11 3 1.6812914e+09
-1.6910423 -0.91137236 -0.50501502 3 0 1.6812914e+09
nan nan nan 0 1 1.6812914e+09
nan nan nan 0 14 1.6812914e+09
-27.618677 -22.168249 9.466898 28 15 1.6812914e+09
-39.504158 -21.201662 7.0794477 7 12 1.6812914e+09
-27.021841 -21.596235 6.7109222 1 13 1.6812914e+09
-11.124026 -5.9691033 1.1014307 16 10 1.6812914e+09
-24.712847 -19.686853 3.8696318 3 11 1.6812914e+09
-10.966317 -5.8795691 0.21658435 13 8 1.6812914e+09
-10.406825 -8.2721214 0.69489068 27 9 1.6812914e+09
-11.007762 -5.8968368 -0.6548028 18 6 1.6812914e+09
-10.414544 -8.272336 -0.2315498 26 7 1.6812914e+09
-10.524169 -5.6307797 -1.4591362 7 4 1.6812914e+09
-10.413811 -8.2717381 -1.1581635 32 5 1.6812914e+09
-7.1007166 -3.7933943 -1.5551575 9 2 1.6812914e+09
-1.7343639 -1.3736871 -0.34531811 13 3 1.6812914e+09
-1.6942134 -0.90546399 -0.50501502 3 0 1.6812914e+09
nan nan nan 0 1 1.6812914e+09
nan nan nan 0 14 1.6812914e+09
-27.824303 -22.174068 9.5108395 18 15 1.6812914e+09
-39.80463 -21.18428 7.1200309 14 12 1.6812914e+09
-26.681856 -21.172218 6.6079779 2 13 1.6812914e+09
-11.24374 -5.9828691 1.1112357 16 10 1.6812914e+09
-24.723516 -19.561676 3.8611131 4 11 1.6812914e+09
-11.068441 -5.8846593 0.2181987 16 8 1.6812914e+09
-10.404289 -8.2109871 0.69279718 27 9 1.6812914e+09
-11.123092 -5.9087253 -0.66044766 16 6 1.6812914e+09
-10.41 -8.2096062 -0.23080805 27 7 1.6812914e+09
-10.574451 -5.6102872 -1.4633956 7 4 1.6812914e+09
-10.413297 -8.2121935 -1.1549017 27 5 1.6812914e+09
-7.0503621 -3.7365117 -1.5413487 11 2 1.6812914e+09
-1.7427847 -1.3709896 -0.34610116 13 3 1.6812914e+09
-1.7187119 -0.9108336 -0.51148129 3 0 1.6812914e+09
nan nan nan 0 1 1.6812914e+09
-41.542278 -21.932531 10.82007 11 14 1.6812914e+09
-27.975313 -22.143145 9.5373344 14 15 1.6812914e+09
-40.117062 -21.180132 7.1633458 11 12 1.6812914e+09
-26.823233 -21.139839 6.6256123 4 13 1.6812914e+09
-11.352669 -5.9900613 1.1199512 15 10 1.6812914e+09
-24.731163 -19.427727 3.8516817 4 11 1.6812914e+09
-11.154228 -5.8828959 0.21950762 16 8 1.6812914e+09
-10.403959 -8.1548672 0.69096541 27 9 1.6812914e+09
-11.204472 -5.904388 -0.66412342 18 6 1.6812914e+09
-10.411047 -8.1516361 -0.23019722 27 7 1.6812914e+09
-10.625937 -5.5925207 -1.4679593 6 4 1.6812914e+09
-10.413029 -8.1561069 -1.1518574 26 5 1.6812914e+09
-7.0307708 -3.6947603 -1.5342062 11 2 1.6812914e+09
-1.7592163 -1.3740408 -0.34845024 27 3 1.6812914e+09
-1.7240194 -0.90595001 -0.51212788 3 0 1.6812914e+09
-1.2710301 -0.9935599 -0.3638697 2 1 1.6812914e+09
-41.778301 -21.870991 10.861623 20 14 1.6812914e+09
-28.19294 -22.1558 9.5851536 14 15 1.6812914e+09
-40.553917 -21.23007 7.2281232 7 12 1.6812914e+09
-27.032141 -21.151962 6.6589737 20 13 1.6812914e+09
-11.480597 -6.0089569 1.1306279 15 10 1.6812914e+09
-28.388916 -22.14213 4.4099627 14 11 1.6812914e+09
-11.269947 -5.8937211 0.22138375 23 8 1.6812914e+09
-10.404784 -8.0970268 0.68913364 27 9 1.6812914e+09
-11.313526 -5.9114761 -0.66937441 18 6 1.6812914e+09
-10.401953 -8.0860844 -0.22936824 27 7 1.6812914e+09
-10.695994 -5.5817928 -1.4749568 4 4 1.6812914e+09
-10.4114 -8.0934191 -1.1483781 28 5 1.6812914e+09
-7.0501556 -3.6735969 -1.5356348 11 2 1.6812914e+09
-1.7834831 -1.383063 -0.35236543 32 3 1.6812914e+09
-1.7271714 -0.89992654 -0.51212788 3 0 1.6812914e+09
-1.2765834 -0.99039346 -0.3644312 2 1 1.6812914e+09
-41.891144 -21.744101 10.871168 26 14 1.6812914e+09
-28.391953 -22.152351 9.6265106 14 15 1.6812914e+09
-40.853523 -21.205547 7.2683163 7 12 1.6812914e+09
-27.241455 -21.162884 6.6923351 22 13 1.6812914e+09
-11.579925 -6.0069661 1.1382539 13 10 1.6812914e+09
-24.701401 -19.126961 3.8261254 7 11 1.6812914e+09
-11.369153 -5.8926234 0.22291085 18 8 1.6812914e+09
-10.404762 -8.0359364 0.6871711 27 9 1.6812914e+09
-11.412715 -5.9101419 -0.67396909 18 6 1.6812914e+09
-10.404396 -8.0298624 -0.22880103 28 7 1.6812914e+09
-10.835411 -5.6040926 -1.4913858 1 4 1.6812914e+09
-10.415936 -8.0387592 -1.1457686 27 5 1.6812914e+09
-7.0520325 -3.6433346 -1.533254 9 2 1.6812914e+09
-1.7883 -1.376829 -0.35236543 36 3 1.6812914e+09
-1.7388884 -0.89831811 -0.51471442 4 0 1.6812914e+09
-1.2896614 -0.99339187 -0.36723885 2 1 1.6812914e+09
-41.998726 -21.604904 10.878469 26 14 1.6812914e+09
-28.583694 -22.133913 9.663991 27 15 1.6812914e+09
-41.15276 -21.16975 7.3077288 11 12 1.6812914e+09
-27.433496 -21.151321 6.7204537 22 13 1.6812914e+09
-11.696063 -6.0154753 1.1476232 11 10 1.6812914e+09
-28.977524 -22.277697 4.4772 14 11 1.6812914e+09
-11.476365 -5.8974466 0.22461246 16 8 1.6812914e+09
-10.399077 -7.9737306 0.68494678 28 9 1.6812914e+09
-11.511013 -5.9101677 -0.67856371 16 6 1.6812914e+09
-10.404593 -7.9722018 -0.2281902 28 7 1.6812914e+09
-10.958691 -5.6194367 -1.505685 1 4 1.6812914e+09
-10.414287 -7.9796195 -1.1425068 28 5 1.6812914e+09
-7.0734448 -3.6231697 -1.5351585 9 2 1.6812914e+09
-1.7891777 -1.3675712 -0.35158238 36 3 1.6812914e+09
-1.7549156 -0.89883655 -0.51859415 4 0 1.6812914e+09
-1.2757429 -0.97551572 -0.36218509 2 1 1.6812914e+09
-42.15477 -21.50869 10.900368 26 14 1.6812914e+09
-28.82538 -22.168585 9.7208557 34 15 1.6812914e+09
-41.55048 -21.200377 7.3658724 11 12 1.6812914e+09
-27.645714 -21.16917 6.7552452 22 13 1.6812914e+09
-11.790211 -6.0119367 1.1548136 11 10 1.6812914e+09
-29.2267 -22.307411 4.5036688 11 11 1.6812914e+09
-11.582719 -5.903614 0.22631407 15 8 1.6812914e+09
-10.401635 -7.9210434 0.68337673 27 9 1.6812914e+09
-11.619542 -5.9172683 -0.68381476 15 6 1.6812914e+09
-10.4065 -7.9161515 -0.227623 28 7 1.6812914e+09
-11.136526 -5.6640382 -1.5275904 1 4 1.6812914e+09
-10.416913 -7.9269342 -1.1398973 29 5 1.6812914e+09
-7.0838614 -3.5973461 -1.5346824 8 2 1.6812914e+09
-1.8017961 -1.367304 -0.35314843 32 3 1.6812914e+09
-1.7795844 -0.90362006 -0.52506042 4 0 1.6812914e+09
-1.2809067 -0.97275877 -0.36274666 4 1 1.6812914e+09
-42.28611 -21.389997 10.914968 7 14 1.6812914e+09
-29.048456 -22.179234 9.769968 32 15 1.6812914e+09
-41.954758 -21.222389 7.4244061 4 12 1.6812914e+09
-27.84642 -21.169098 6.7862244 30 13 1.6812914e+09
-11.896764 -6.0166292 1.1633112 7 10 1.6812914e+09
-29.444799 -22.311676 4.5252695 11 11 1.6812914e+09
-11.6925 -5.9082284 0.22805932 16 8 1.6812914e+09
-10.399355 -7.862092 0.68141413 29 9 1.6812914e+09
-11.72482 -5.9194174 -0.6888032 15 6 1.6812914e+09
-10.408146 -7.8601856 -0.22705579 29 7 1.6812914e+09
-8.1515303 -4.1106367 -1.1150405 1 4 1.6812914e+09
-10.41212 -7.863174 -1.1362007 28 5 1.6812914e+09
-7.1051445 -3.5770094 -1.5365871 8 2 1.6812914e+09
-1.8045888 -1.3595166 -0.35275695 28 3 1.6812914e+09
-1.7870438 -0.89957047 -0.52635366 4 0 1.6812914e+09
-1.2844635 -0.96805739 -0.36274666 6 1 1.6812914e+09
-42.443272 -21.283754 10.936306 18 14 1.6812914e+09
-29.258486 -22.178379 9.8145552 27 15 1.6812914e+09
-42.242699 -21.183174 7.4622579 4 12 1.6812914e+09
-28.051373 -21.170835 6.8181558 14 13 1.6812914e+09
-11.996669 -6.0120282 1.1709374 4 10 1.6812914e+09
-29.593882 -22.26247 4.536222 18 11 1.6812914e+09
-11.810191 -5.9134431 0.22993544 16 8 1.6812914e+09
-10.410134 -7.8104334 0.68023658 28 9 1.6812914e+09
-11.829054 -5.9177217 -0.69366044 16 6 1.6812914e+09
-10.405528 -7.8013053 -0.22640133 29 7 1.6812914e+09
-8.1754217 -4.0851674 -1.1162575 1 4 1.6812914e+09
-10.415597 -7.8088446 -1.1335912 28 5 1.6812914e+09
-7.1066055 -3.5467086 -1.5342062 8 2 1.6812914e+09
-1.8152463 -1.3576577 -0.35393149 23 3 1.6812914e+09
-1.8053056 -0.90086192 -0.53088003 4 0 1.6812914e+09
-1.2936738 -0.96796322 -0.3644312 7 1 1.6812914e+09
-42.590809 -21.162737 10.954275 14 14 1.6812914e+09
-29.476587 -22.174089 9.8604364 39 15 1.6812914e+09
-42.55447 -21.144669 7.5036216 4 12 1.6812914e+09
-28.278051 -21.17971 6.8543768 14 13 1.6812914e+09
-12.104574 -6.0133176 1.179435 2 10 1.6812914e+09
-29.846266 -22.281536 4.562387 20 11 1.6812914e+09
-11.906892 -5.9099574 0.23141889 19 8 1.6812914e+09
-10.40931 -7.7531586 0.67840481 27 9 1.6812914e+09
-11.941346 -5.9218588 -0.69904274 16 6 1.6812914e+09
-10.406635 -7.7455249 -0.22583412 29 7 1.6812914e+09
-8.1896324 -4.0566049 -1.1162575 2 4 1.6812914e+09
-10.420822 -7.7560759 -1.1311992 29 5 1.6812914e+09
-7.130559 -3.5260749 -1.5365871 8 2 1.6812914e+09
-1.8182303 -1.3495196 -0.35353997 18 3 1.6812914e+09
-1.8257631 -0.90310556 -0.53605306 4 0 1.6812914e+09
-1.2911904 -0.95906669 -0.36274666 8 1 1.6812914e+09
-42.939789 -21.149555 11.025027 3 14 1.6812914e+09
-29.685377 -22.169342 9.9043779 29 15 1.6812914e+09
-42.862839 -21.111645 7.5449853 4 12 1.6812914e+09
-28.481779 -21.177536 6.8858323 18 13 1.6812914e+09
-12.20146 -6.0084262 1.1868433 1 10 1.6812914e+09
-30.031509 -22.257017 4.5788159 18 11 1.6812914e+09
-11.99474 -5.9014549 0.23272783 19 8 1.6812914e+09
-10.408214 -7.6959858 0.67657304 28 9 1.6812914e+09
-12.056051 -5.926384 -0.70455629 15 6 1.6812914e+09
-10.411501 -7.6928039 -0.22535418 29 7 1.6812914e+09
-8.1681004 -4.0105019 -1.1113896 2 4 1.6812914e+09
-10.413789 -7.6944804 -1.1275024 29 5 1.6812914e+09
-7.1384158 -3.4990036 -1.5356348 8 2 1.6812914e+09
-1.8308693 -1.3490396 -0.35510603 12 3 1.6812914e+09
-1.8332428 -0.89884949 -0.5373463 4 0 1.6812914e+09
-1.2984434 -0.95745677 -0.3638697 8 1 1.6812914e+09
-42.735325 -20.863815 10.953712 3 14 1.6812914e+09
-29.913893 -22.177797 9.9547825 27 15 1.6812914e+09
-45.321766 -22.12641 7.9644761 1 12 1.6812914e+09
-28.697678 -21.182941 6.9201469 18 13 1.6812914e+09
-12.370084 -6.0378804 1.201224 1 10 1.6812914e+09
