# .PCD v0.7 - Point Cloud Data file format
VERSION 0.7
FIELDS x y z intensity ring timestamp
SIZE 4 4 4 4 2 8
TYPE F F F F U F
COUNT 1 1 1 1 1 1
WIDTH 956
HEIGHT 1
VIEWPOINT 0 0 0 1 0 0 0
POINTS 956
DATA ascii
-25.862032 -0.99071479 0.45114467 14 8 1.6812926e+09
nan nan nan 0 9 1.6812926e+09
-21.85153 -0.82970911 -1.1480054 9 6 1.6812926e+09
-36.733501 -8.125494 -0.65607953 1 7 1.6812926e+09
-11.153769 -0.41850978 -1.3642133 14 4 1.6812926e+09
-15.950177 -3.5255396 -1.4232408 8 5 1.6812926e+09
-8.1872454 -0.301947 -1.5827751 9 2 1.6812926e+09
-9.39048 -2.0770996 -1.5194778 8 3 1.6812926e+09
-6.0296164 -0.21968119 -1.6062193 8 0 1.6812926e+09
-6.6473165 -1.4774264 -1.5616075 7 1 1.6812926e+09
-25.483803 -0.90056086 5.8696451 11 14 1.6812926e+09
nan nan nan 0 15 1.6812926e+09
-25.502785 -0.90121812 4.0271139 25 12 1.6812926e+09
nan nan nan 0 13 1.6812926e+09
-25.588949 -0.89977944 2.2370701 38 10 1.6812926e+09
nan nan nan 0 11 1.6812926e+09
-25.613024 -0.89166665 0.44673795 34 8 1.6812926e+09
nan nan nan 0 9 1.6812926e+09
-21.7994 -0.75153983 -1.1451173 9 6 1.6812926e+09
-34.045662 -7.4060345 -0.60756189 3 7 1.6812926e+09
-11.098124 -0.37764129 -1.3572159 15 4 1.6812926e+09
-15.974554 -3.4724903 -1.4243281 8 5 1.6812926e+09
-8.1907034 -0.27344769 -1.5832514 9 2 1.6812926e+09
-9.3880253 -2.0422039 -1.5179119 8 3 1.6812926e+09
-6.0351734 -0.19879016 -1.6075125 8 0 1.6812926e+09
-6.650054 -1.4536921 -1.5610459 8 1 1.6812926e+09
-25.250608 -0.80409539 5.8151765 11 14 1.6812926e+09
nan nan nan 0 15 1.6812926e+09
-25.486029 -0.81156385 4.0239921 25 12 1.6812926e+09
nan nan nan 0 13 1.6812926e+09
-25.611851 -0.81108117 2.2388132 40 10 1.6812926e+09
nan nan nan 0 11 1.6812926e+09
-25.64596 -0.80319196 0.44726151 41 8 1.6812926e+09
nan nan nan 0 9 1.6812926e+09
-21.769451 -0.67443871 -1.1434107 9 6 1.6812926e+09
-34.137306 -7.3012724 -0.60873991 14 7 1.6812926e+09
-11.012564 -0.33626214 -1.3465674 18 4 1.6812926e+09
-15.979272 -3.4151437 -1.4236758 9 5 1.6812926e+09
-8.198967 -0.24507357 -1.5846798 9 2 1.6812926e+09
-9.4023399 -2.0109739 -1.5190865 8 3 1.6812926e+09
-6.0382438 -0.17779264 -1.6081591 8 0 1.6812926e+09
-6.6693759 -1.4335517 -1.564415 7 1 1.6812926e+09
-25.017052 -0.70926899 5.7607083 11 14 1.6812926e+09
nan nan nan 0 15 1.6812926e+09
-25.505985 -0.72308475 4.0267239 22 12 1.6812926e+09
nan nan nan 0 13 1.6812926e+09
-25.641911 -0.72244394 2.24121 42 10 1.6812926e+09
nan nan nan 0 11 1.6812926e+09
-25.656105 -0.7138741 0.44739243 41 8 1.6812926e+09
nan nan nan 0 9 1.6812926e+09
-21.674343 -0.59577739 -1.1382909 9 6 1.6812926e+09
-31.009583 -6.518774 -0.55249953 14 7 1.6812926e+09
-10.981422 -0.29695216 -1.3426123 15 4 1.6812926e+09
-16.027653 -3.3670356 -1.4269375 8 5 1.6812926e+09
-8.2046413 -0.21801281 -1.5856322 9 2 1.6812926e+09
-9.4065399 -1.979274 -1.518695 8 3 1.6812926e+09
-6.0412421 -0.15677612 -1.6088058 8 0 1.6812926e+09
-6.6671901 -1.4087466 -1.5627306 7 1 1.6812926e+09
-24.81226 -0.62113798 5.7129788 10 14 1.6812926e+09
nan nan nan 0 15 1.6812926e+09
-25.486027 -0.63794523 4.023212 22 12 1.6812926e+09
nan nan nan 0 13 1.6812926e+09
-25.584522 -0.63146174 2.2359805 31 10 1.6812926e+09
nan nan nan 0 11 1.6812926e+09
-25.593359 -0.62720358 0.44625801 27 8 1.6812926e+09
-76.226158 -15.794883 4.0778866 1 9 1.6812926e+09
-21.691177 -0.52426022 -1.1390786 9 6 1.6812926e+09
nan nan nan 0 7 1.6812926e+09
-10.967463 -0.26018402 -1.3407868 16 4 1.6812926e+09
-15.99727 -3.3052886 -1.4232408 8 5 1.6812926e+09
-8.2078056 -0.18942805 -1.5861082 9 2 1.6812926e+09
-9.4254799 -1.9489326 -1.5206525 8 3 1.6812926e+09
-6.048996 -0.13584785 -1.6107457 8 0 1.6812926e+09
-6.6861334 -1.3896137 -1.5660996 8 1 1.6812926e+09
-24.57559 -0.52939844 5.657949 1 14 1.6812926e+09
nan nan nan 0 15 1.6812926e+09
-25.256033 -0.54399592 3.9865305 22 12 1.6812926e+09
nan nan nan 0 13 1.6812926e+09
-25.384792 -0.54232186 2.2183316 23 10 1.6812926e+09
nan nan nan 0 11 1.6812926e+09
-25.390469 -0.53356975 0.44268027 22 8 1.6812926e+09
-76.760315 -15.626349 4.1035314 1 9 1.6812926e+09
-21.660425 -0.44787228 -1.137372 9 6 1.6812926e+09
nan nan nan 0 7 1.6812926e+09
-10.938535 -0.22130124 -1.337136 19 4 1.6812926e+09
-16.074608 -3.2628229 -1.4291122 7 5 1.6812926e+09
-8.2010555 -0.16063367 -1.5846798 9 2 1.6812926e+09
-9.4370651 -1.9170052 -1.5214356 8 3 1.6812926e+09
-6.0518274 -0.11583343 -1.6113924 8 0 1.6812926e+09
-6.6885571 -1.3657773 -1.565538 7 1 1.6812926e+09
-18.841154 -0.34048137 4.3355522 6 14 1.6812926e+09
nan nan nan 0 15 1.6812926e+09
-25.042978 -0.45197073 3.9525814 23 12 1.6812926e+09
nan nan nan 0 13 1.6812926e+09
-25.080246 -0.44825599 2.1915312 17 10 1.6812926e+09
nan nan nan 0 11 1.6812926e+09
-25.099766 -0.43983313 0.43757546 18 8 1.6812926e+09
-77.29422 -15.454276 4.1291761 1 9 1.6812926e+09
-21.754213 -0.37384042 -1.1422292 8 6 1.6812926e+09
-52.082268 -10.392955 -0.92641735 25 7 1.6812926e+09
-10.921872 -0.18282928 -1.3350062 24 4 1.6812926e+09
-16.098108 -3.2091296 -1.4301994 7 5 1.6812926e+09
-8.2064743 -0.13208364 -1.5856322 9 2 1.6812926e+09
-9.4582262 -1.8869574 -1.5237846 8 3 1.6812926e+09
-6.0497804 -0.094670825 -1.6107457 8 0 1.6812926e+09
-6.6908956 -1.3419409 -1.5649766 8 1 1.6812926e+09
-18.715561 -0.27287638 4.3063526 10 14 1.6812926e+09
nan nan nan 0 15 1.6812926e+09
-24.83453 -0.36151117 3.9194119 24 12 1.6812926e+09
nan nan nan 0 13 1.6812926e+09
-24.86252 -0.35757035 2.1723568 18 10 1.6812926e+09
nan nan nan 0 11 1.6812926e+09
-24.906197 -0.34949374 0.43417221 18 8 1.6812926e+09
nan nan nan 0 9 1.6812926e+09
-18.41781 -0.25246263 -0.96671373 6 6 1.6812926e+09
-54.644756 -10.706319 -0.97135723 1 7 1.6812926e+09
-10.882745 -0.14418404 -1.3301383 25 4 1.6812926e+09
-16.145874 -3.1601033 -1.4334612 7 5 1.6812926e+09
-8.2191563 -0.10358895 -1.5880129 9 2 1.6812926e+09
-9.4647551 -1.8539305 -1.5237846 8 3 1.6812926e+09
-6.0500736 -0.073552564 -1.6107457 8 0 1.6812926e+09
-6.6979289 -1.3190495 -1.565538 8 1 1.6812926e+09
-18.599474 -0.20625949 4.2793994 23 14 1.6812926e+09
nan nan nan 0 15 1.6812926e+09
-24.610943 -0.27234954 3.8839018 23 12 1.6812926e+09
nan nan nan 0 13 1.6812926e+09
-24.646957 -0.26843721 2.1534004 17 10 1.6812926e+09
nan nan nan 0 11 1.6812926e+09
-24.664816 -0.26001376 0.42994002 19 8 1.6812926e+09
nan nan nan 0 9 1.6812926e+09
-18.433558 -0.18832256 -0.96750134 9 6 1.6812926e+09
nan nan nan 0 7 1.6812926e+09
-10.821149 -0.1055998 -1.3225324 23 4 1.6812926e+09
-16.266861 -3.1248977 -1.4432466 7 5 1.6812926e+09
-8.2194681 -0.074898116 -1.5880129 9 2 1.6812926e+09
-9.4832907 -1.8232177 -1.5257422 7 3 1.6812926e+09
-6.0599527 -0.052514341 -1.6133322 7 0 1.6812926e+09
-6.7001009 -1.2951972 -1.5649766 7 1 1.6812926e+09
-18.585464 -0.14122427 4.2760305 35 14 1.6812926e+09
nan nan nan 0 15 1.6812926e+09
-24.387039 -0.18475322 3.8483913 21 12 1.6812926e+09
nan nan nan 0 13 1.6812926e+09
-24.416134 -0.18070382 2.133137 19 10 1.6812926e+09
nan nan nan 0 11 1.6812926e+09
-24.438112 -0.17232788 0.42596957 18 8 1.6812926e+09
nan nan nan 0 9 1.6812926e+09
-18.461563 -0.12415841 -0.96894538 4 6 1.6812926e+09
nan nan nan 0 7 1.6812926e+09
-10.789194 -0.067629248 -1.3185773 19 4 1.6812926e+09
-16.398129 -3.087872 -1.453902 8 5 1.6812926e+09
-8.2221336 -0.046219639 -1.5884892 9 2 1.6812926e+09
-9.484746 -1.7891862 -1.5249592 8 3 1.6812926e+09
-6.0552754 -0.030280394 -1.612039 8 0 1.6812926e+09
-6.704803 -1.2706316 -1.5649766 7 1 1.6812926e+09
-18.610205 -0.076445818 4.2816458 34 14 1.6812926e+09
nan nan nan 0 15 1.6812926e+09
-24.172703 -0.098763049 3.8144419 21 12 1.6812926e+09
nan nan nan 0 13 1.6812926e+09
-24.224867 -0.090510145 2.1163592 19 10 1.6812926e+09
nan nan nan 0 11 1.6812926e+09
-24.221113 -0.082035422 0.42217368 18 8 1.6812926e+09
nan nan nan 0 9 1.6812926e+09
-21.557604 -0.065677755 -1.1317271 8 6 1.6812926e+09
nan nan nan 0 7 1.6812926e+09
-10.759591 -0.028011659 -1.3149264 23 4 1.6812926e+09
-16.445541 -3.0374079 -1.4571638 9 5 1.6812926e+09
-8.224699 -0.017523468 -1.5889653 9 2 1.6812926e+09
-9.4909344 -1.7560672 -1.5249592 8 3 1.6812926e+09
-6.0577579 -0.0091463039 -1.6126854 8 0 1.6812926e+09
-6.7139869 -1.2481134 -1.5660996 7 1 1.6812926e+09
-18.632284 -0.0082431482 4.2866993 37 14 1.6812926e+09
nan nan nan 0 15 1.6812926e+09
-23.980293 -0.01009776 3.7840044 22 12 1.6812926e+09
nan nan nan 0 13 1.6812926e+09
-24.020815 -0.0059133833 2.0984924 19 10 1.6812926e+09
nan nan nan 0 11 1.6812926e+09
-24.016285 0.0024767697 0.41859594 19 8 1.6812926e+09
nan nan nan 0 9 1.6812926e+09
-18.711634 0.0080825258 -0.98207295 4 6 1.6812926e+09
-24.843853 -4.5012951 -0.44010603 7 7 1.6812926e+09
-10.697589 0.0094815306 -1.3073204 24 4 1.6812926e+09
-16.490353 -2.9862065 -1.4602082 9 5 1.6812926e+09
-8.2271643 0.011190052 -1.5894415 10 2 1.6812926e+09
-9.5042934 -1.7242527 -1.5261338 8 3 1.6812926e+09
-6.0674138 0.012021192 -1.615272 8 0 1.6812926e+09
-6.7254925 -1.2259851 -1.5677843 7 1 1.6812926e+09
-18.663879 0.053637747 4.2939992 38 14 1.6812926e+09
nan nan nan 0 15 1.6812926e+09
-23.76783 0.068793714 3.7504451 21 12 1.6812926e+09
nan nan nan 0 13 1.6812926e+09
-23.801529 0.077208176 2.0793183 21 10 1.6812926e+09
nan nan nan 0 11 1.6812926e+09
-23.828674 0.081463225 0.41532362 22 8 1.6812926e+09
nan nan nan 0 9 1.6812926e+09
-18.741465 0.070247531 -0.98364824 9 6 1.6812926e+09
-24.955395 -4.4316087 -0.44180763 10 7 1.6812926e+09
-10.695016 0.044945132 -1.3070161 23 4 1.6812926e+09
-16.500164 -2.9315059 -1.4602082 9 5 1.6812926e+09
-8.2295294 0.039920565 -1.5899177 9 2 1.6812926e+09
-9.507823 -1.6906325 -1.5257422 8 3 1.6812926e+09
-6.0600901 0.033158619 -1.6133322 9 0 1.6812926e+09
-6.7247248 -1.2028147 -1.5666611 7 1 1.6812926e+09
-18.675756 0.11886517 4.2968068 35 14 1.6812926e+09
nan nan nan 0 15 1.6812926e+09
-23.569902 0.1504828 3.7192271 22 12 1.6812926e+09
nan nan nan 0 13 1.6812926e+09
-23.599415 0.15479854 2.0616691 19 10 1.6812926e+09
nan nan nan 0 11 1.6812926e+09
-23.620781 0.16319193 0.41170225 21 8 1.6812926e+09
-72.636627 -12.685544 3.8625243 3 9 1.6812926e+09
-21.492229 0.15583418 -1.128314 7 6 1.6812926e+09
-24.879599 -4.3286014 -0.4401933 3 7 1.6812926e+09
-10.625319 0.081731759 -1.2984974 26 4 1.6812926e+09
-16.51325 -2.8714373 -1.4604255 9 5 1.6812926e+09
-8.2440643 0.068772674 -1.5927747 9 2 1.6812926e+09
-9.5112343 -1.6570089 -1.5253507 8 3 1.6812926e+09
-6.0647669 0.05435675 -1.6146255 8 0 1.6812926e+09
-6.7266889 -1.1777375 -1.5660996 7 1 1.6812926e+09
-18.704462 0.18434583 4.3035455 32 14 1.6812926e+09
nan nan nan 0 15 1.6812926e+09
-23.356876 0.23064353 3.6856678 21 12 1.6812926e+09
nan nan nan 0 13 1.6812926e+09
-23.387011 0.23911385 2.0431485 22 10 1.6812926e+09
nan nan nan 0 11 1.6812926e+09
-23.415068 0.24758318 0.40812451 21 8 1.6812926e+09
-72.717087 -12.425121 3.8643563 10 9 1.6812926e+09
-21.516476 0.23488058 -1.1296268 8 6 1.6812926e+09
-24.864986 -4.2366858 -0.43966973 2 7 1.6812926e+09
-10.567878 0.12001752 -1.2915 21 4 1.6812926e+09
-16.5109 -2.8116844 -1.4593383 9 5 1.6812926e+09
-8.2413197 0.097519852 -1.5922985 10 2 1.6812926e+09
-9.5242615 -1.6250476 -1.5265253 8 3 1.6812926e+09
-6.0572958 0.075434104 -1.6126854 8 0 1.6812926e+09
-6.7427626 -1.1563168 -1.5689073 7 1 1.6812926e+09
-18.732889 0.25329781 4.3102832 29 14 1.6812926e+09
nan nan nan 0 15 1.6812926e+09
-23.163282 0.31362721 3.6552303 22 12 1.6812926e+09
nan nan nan 0 13 1.6812926e+09
-23.191793 0.31806993 2.0261531 22 10 1.6812926e+09
nan nan nan 0 11 1.6812926e+09
-23.219107 0.32655925 0.40472126 22 8 1.6812926e+09
nan nan nan 0 9 1.6812926e+09
-19.051691 0.27429149 -1.0000577 10 6 1.6812926e+09
-39.561569 -6.6015124 -0.69949239 3 7 1.6812926e+09
-10.562432 0.15683109 -1.2908914 17 4 1.6812926e+09
-16.530439 -2.7556741 -1.4602082 9 5 1.6812926e+09
-8.2531986 0.12647744 -1.5946792 9 2 1.6812926e+09
-9.5323114 -1.5921999 -1.5269169 8 3 1.6812926e+09
-6.0618253 0.096655957 -1.6139787 8 0 1.6812926e+09
-6.7443557 -1.1323681 -1.5683458 7 1 1.6812926e+09
-18.756306 0.31582934 4.3158989 26 14 1.6812926e+09
nan nan nan 0 15 1.6812926e+09
-22.97447 0.38726062 3.6255732 23 12 1.6812926e+09
nan nan nan 0 13 1.6812926e+09
-23.003782 0.3957952 2.0098114 24 10 1.6812926e+09
nan nan nan 0 11 1.6812926e+09
-23.015461 0.40002123 0.40118715 23 8 1.6812926e+09
-37.566776 -6.1538954 1.9932148 2 9 1.6812926e+09
-19.065653 0.33773431 -1.0008453 10 6 1.6812926e+09
-37.642918 -6.1461468 -0.66515481 4 7 1.6812926e+09
-10.519677 0.19108349 -1.2857193 19 4 1.6812926e+09
-16.52228 -2.6980276 -1.458686 9 5 1.6812926e+09
-8.2502537 0.15523903 -1.5942031 10 2 1.6812926e+09
-9.5402479 -1.5593156 -1.5273082 8 3 1.6812926e+09
-6.0590358 0.11776745 -1.6133322 8 0 1.6812926e+09
-6.7528811 -1.1107908 -1.5694687 7 1 1.6812926e+09
-18.781881 0.38184631 4.3220758 26 14 1.6812926e+09
nan nan nan 0 15 1.6812926e+09
-22.782879 0.46357167 3.595526 24 12 1.6812926e+09
-37.451283 -6.0946412 7.3619499 3 13 1.6812926e+09
-22.833027 0.46858871 1.9949949 22 10 1.6812926e+09
-37.509167 -6.0436401 4.6539636 33 11 1.6812926e+09
-22.813999 0.47616994 0.3976967 24 8 1.6812926e+09
-37.447521 -6.0001941 1.9857569 60 9 1.6812926e+09
-19.106789 0.4051874 -1.003077 19 6 1.6812926e+09
-37.419781 -5.9756579 -0.66083533 47 7 1.6812926e+09
-10.496618 0.22731566 -1.2829812 17 4 1.6812926e+09
-16.507463 -2.6335216 -1.4565114 8 5 1.6812926e+09
-8.2496614 0.18403685 -1.5942031 10 2 1.6812926e+09
-9.5456333 -1.5260044 -1.5273082 8 3 1.6812926e+09
-6.0682449 0.13914092 -1.6159186 8 0 1.6812926e+09
-6.764122 -1.0871975 -1.5711534 7 1 1.6812926e+09
-18.814529 0.44822043 4.329937 23 14 1.6812926e+09
-37.378311 -6.0291348 10.121503 25 15 1.6812926e+09
-22.583632 0.53837281 3.5643079 25 12 1.6812926e+09
-37.244511 -5.927588 7.3171501 50 13 1.6812926e+09
-22.646914 0.54780221 1.9788712 23 10 1.6812926e+09
-37.066772 -5.8396297 4.5964622 58 11 1.6812926e+09
-22.657171 0.55597079 0.39499158 24 8 1.6812926e+09
-36.89703 -5.7732935 1.9554021 31 9 1.6812926e+09
-19.132627 0.47589988 -1.004521 29 6 1.6812926e+09
-36.906971 -5.7616577 -0.65141106 49 7 1.6812926e+09
-10.384087 0.26294106 -1.2692903 18 4 1.6812926e+09
-16.452579 -2.5658882 -1.4508576 7 5 1.6812926e+09
-8.2440615 0.21270476 -1.5932508 10 2 1.6812926e+09
-9.5655375 -1.4949692 -1.5296575 7 3 1.6812926e+09
-6.0628948 0.16019325 -1.6146255 8 0 1.6812926e+09
-6.7775006 -1.065099 -1.5733994 7 1 1.6812926e+09
-18.844418 0.51804936 4.3372369 19 14 1.6812926e+09
-36.951675 -5.821384 10.000017 47 15 1.6812926e+09
-22.411184 0.61644441 3.5373828 26 12 1.6812926e+09
-36.708237 -5.7042971 7.2075334 49 13 1.6812926e+09
-22.440722 0.62118483 1.9610043 23 10 1.6812926e+09
-36.557198 -5.6285782 4.530746 31 11 1.6812926e+09
-22.475191 0.62999916 0.39185014 24 8 1.6812926e+09
-35.873062 -5.484725 1.9000568 3 9 1.6812926e+09
-19.173273 0.54388952 -1.0067527 32 6 1.6812926e+09
-36.410419 -5.5539517 -0.64229214 43 7 1.6812926e+09
-10.316137 0.29724589 -1.261076 18 4 1.6812926e+09
-16.385113 -2.4967904 -1.4441165 6 5 1.6812926e+09
-8.2506285 0.24169776 -1.5946792 10 2 1.6812926e+09
-9.5706978 -1.4615701 -1.5296575 8 3 1.6812926e+09
-6.0719543 0.18164738 -1.6172119 8 0 1.6812926e+09
-6.7715468 -1.0399489 -1.5711534 7 1 1.6812926e+09
-18.866945 0.58128923 4.3428521 17 14 1.6812926e+09
-36.440903 -5.6170716 9.8565598 32 15 1.6812926e+09
-22.236244 0.68542004 3.5100667 25 12 1.6812926e+09
-36.33147 -5.5223732 7.129848 7 13 1.6812926e+09
-22.274124 0.69437939 1.9466234 23 10 1.6812926e+09
-35.950905 -5.4067521 4.4531646 1 11 1.6812926e+09
-22.280603 0.69848037 0.38849056 23 8 1.6812926e+09
-35.24168 -5.2685699 1.8656459 7 9 1.6812926e+09
-19.266188 0.61048043 -1.0117413 26 6 1.6812926e+09
-35.890625 -5.3464665 -0.63278061 44 7 1.6812926e+09
-10.320054 0.33161399 -1.2616843 19 4 1.6812926e+09
-16.2997 -2.4284697 -1.4358532 6 5 1.6812926e+09
-8.2570934 0.2707392 -1.5961078 10 2 1.6812926e+09
-9.5757408 -1.4281533 -1.5296575 8 3 1.6812926e+09
-6.0761099 0.20300397 -1.6185051 8 0 1.6812926e+09
-6.787003 -1.0193052 -1.573961 7 1 1.6812926e+09
-18.889147 0.64798111 4.3484674 16 14 1.6812926e+09
-35.891926 -5.4041824 9.7027626 32 15 1.6812926e+09
-22.063431 0.75717759 3.4831412 27 12 1.6812926e+09
-35.663544 -5.2934618 6.9949727 7 13 1.6812926e+09
-22.09996 0.76230192 1.9315892 24 10 1.6812926e+09
-35.186401 -5.1661382 4.356112 4 11 1.6812926e+09
-22.105659 0.77023071 0.38548002 24 8 1.6812926e+09
-35.509361 -5.1819649 1.8788607 71 9 1.6812926e+09
-19.378708 0.68177617 -1.0177799 1 6 1.6812926e+09
-35.409409 -5.1484375 -0.62396711 40 7 1.6812926e+09
-10.323792 0.3678132 -1.2622929 19 4 1.6812926e+09
-16.261663 -2.3618972 -1.4317214 6 5 1.6812926e+09
-8.251193 0.29938117 -1.5951555 10 2 1.6812926e+09
-9.5806675 -1.3947191 -1.5296575 8 3 1.6812926e+09
-6.0753636 0.22421232 -1.6185051 8 0 1.6812926e+09
-6.783463 -0.99335897 -1.5722765 7 1 1.6812926e+09
-18.906246 0.71465051 4.3529596 17 14 1.6812926e+09
-35.284569 -5.1867585 9.5334568 1 15 1.6812926e+09
-21.895325 0.82792425 3.4569964 24 12 1.6812926e+09
-34.936172 -5.0608292 6.8486581 14 13 1.6812926e+09
-21.935253 0.83711123 1.9174263 24 10 1.6812926e+09
-35.01017 -5.0154595 4.332077 42 11 1.6812926e+09
-21.950325 0.84536695 0.38281852 25 8 1.6812926e+09
-34.947273 -4.9691157 1.8481134 47 9 1.6812926e+09
-19.433456 0.75503242 -1.0207992 29 6 1.6812926e+09
-34.944576 -4.9562936 -0.61545908 42 7 1.6812926e+09
-10.319896 0.40555146 -1.2619886 18 4 1.6812926e+09
-16.198303 -2.2949674 -1.4254153 7 5 1.6812926e+09
-8.2672625 0.32886785 -1.5984887 10 2 1.6812926e+09
-9.5830336 -1.3609194 -1.5292659 8 3 1.6812926e+09
-6.0817833 0.24571249 -1.620445 8 0 1.6812926e+09
-6.7893 -0.97002035 -1.5728381 7 1 1.6812926e+09
-18.937576 0.78535688 4.3608208 14 14 1.6812926e+09
-34.887379 -4.9977541 9.4210167 52 15 1.6812926e+09
-21.704636 0.90037572 3.4273396 24 12 1.6812926e+09
-34.672604 -4.8929305 6.7933726 47 13 1.6812926e+09
-21.750551 0.90609288 1.9015204 26 10 1.6812926e+09
-34.592487 -4.8323979 4.2782264 51 11 1.6812926e+09
-21.759935 0.91409963 0.3795462 26 8 1.6812926e+09
-34.548962 -4.7894487 1.8261322 42 9 1.6812926e+09
-19.348389 0.81937021 -1.0164672 29 6 1.6812926e+09
-34.429325 -4.7606058 -0.60607845 31 7 1.6812926e+09
-10.301064 0.44082659 -1.259859 18 4 1.6812926e+09
-16.201279 -2.2377279 -1.4249805 7 5 1.6812926e+09
-8.2709694 0.35793722 -1.5994411 13 2 1.6812926e+09
-9.6023998 -1.3294989 -1.531615 8 3 1.6812926e+09
-6.078476 0.26683375 -1.6197984 8 0 1.6812926e+09
-6.7974701 -0.94699091 -1.573961 7 1 1.6812926e+09
-18.954336 0.84902573 4.3653131 14 14 1.6812926e+09
-34.449341 -4.8184137 9.2982388 50 15 1.6812926e+09
-21.526379 0.96448427 3.3996334 25 12 1.6812926e+09
-34.328831 -4.7283177 6.722837 32 13 1.6812926e+09
-21.580563 0.97447067 1.8869219 26 10 1.6812926e+09
-34.260006 -4.6640401 4.2350245 10 11 1.6812926e+09
-21.596972 0.9789961 0.37675381 26 8 1.6812926e+09
-34.265305 -4.6343269 1.8103007 1 9 1.6812926e+09
-19.377987 0.8850109 -1.0181737 30 6 1.6812926e+09
-33.992405 -4.5792642 -0.59809393 27 7 1.6812926e+09
-10.210309 0.47085357 -1.2489063 19 4 1.6812926e+09
-16.228359 -2.1866565 -1.4267201 7 5 1.6812926e+09
-8.2770233 0.38715166 -1.6008694 11 2 1.6812926e+09
-9.6069822 -1.2959722 -1.531615 8 3 1.6812926e+09
-6.0799198 0.288165 -1.620445 8 0 1.6812926e+09
-6.8005729 -0.92444456 -1.573961 7 1 1.6812926e+09
-19.002357 0.91765589 4.3771052 18 14 1.6812926e+09
-34.190765 -4.6605854 9.2239246 3 15 1.6812926e+09
-21.379829 1.0326982 3.3770006 26 12 1.6812926e+09
-33.732185 -4.5261307 6.602735 1 13 1.6812926e+09
-21.405571 1.0376945 1.8718874 26 10 1.6812926e+09
-33.725075 -4.4712939 4.1668744 1 11 1.6812926e+09
-21.436136 1.0466851 0.37400505 26 8 1.6812926e+09
-33.630302 -4.4288735 1.7758898 1 9 1.6812926e+09
-18.090612 0.8893916 -0.95056677 25 6 1.6812926e+09
-33.539009 -4.4049339 -0.58984768 29 7 1.6812926e+09
-10.206125 0.50636792 -1.248602 19 4 1.6812926e+09
-16.208731 -2.1264243 -1.4243281 9 5 1.6812926e+09
-8.2682686 0.41567028 -1.5994411 23 2 1.6812926e+09
-9.6236868 -1.2640432 -1.5335726 8 3 1.6812926e+09
-6.0789309 0.30832517 -1.620445 8 0 1.6812926e+09
-6.820662 -0.90294987 -1.5778917 7 1 1.6812926e+09
-19.006336 0.9843595 4.3787899 17 14 1.6812926e+09
-33.560448 -4.4553075 9.0494499 1 15 1.6812926e+09
-21.2232 1.0993887 3.3528066 27 12 1.6812926e+09
-33.399799 -4.3628526 6.5345826 1 13 1.6812926e+09
-21.267513 1.1054157 1.8601214 27 10 1.6812926e+09
-33.103085 -4.2712135 4.0880761 7 11 1.6812926e+09
-21.257616 1.1123472 0.37095088 26 8 1.6812926e+09
-32.969532 -4.2247338 1.7401705 10 9 1.6812926e+09
-19.583248 1.0314521 -1.0293322 32 6 1.6812926e+09
-33.137634 -4.2345476 -0.58251762 34 7 1.6812926e+09
-10.169605 0.54014242 -1.2443427 18 4 1.6812926e+09
-16.203699 -2.0682523 -1.4232408 9 5 1.6812926e+09
-8.2569647 0.44400018 -1.5975363 31 2 1.6812926e+09
-9.6329393 -1.2310708 -1.5343556 8 3 1.6812926e+09
-6.0802288 0.32967412 -1.6210917 8 0 1.6812926e+09
-6.8261886 -0.87944865 -1.5784532 7 1 1.6812926e+09
-19.036652 1.0559065 4.386651 17 14 1.6812926e+09
-32.93705 -4.24967 8.8769131 3 15 1.6812926e+09
-21.051369 1.1678534 3.3262713 24 12 1.6812926e+09
-32.867783 -4.1708169 6.4273486 32 13 1.6812926e+09
-21.081797 1.1732408 1.8442155 26 10 1.6812926e+09
-32.810036 -4.1169753 4.0500464 49 11 1.6812926e+09
-21.10116 1.1817149 0.36828938 27 8 1.6812926e+09
-32.737053 -4.0730081 1.7270865 44 9 1.6812926e+09
-19.626698 1.105894 -1.0318264 33 6 1.6812926e+09
-32.716354 -4.0588393 -0.57483864 33 7 1.6812926e+09
-10.122963 0.57487231 -1.2388663 19 4 1.6812926e+09
-16.183985 -2.0054722 -1.4208487 9 5 1.6812926e+09
-8.2578144 0.4729605 -1.5980124 34 2 1.6812926e+09
-9.6396284 -1.1977439 -1.5347472 7 3 1.6812926e+09
-6.088623 0.35251817 -1.6236781 8 0 1.6812926e+09
-6.8221149 -0.85351145 -1.5767686 7 1 1.6812926e+09
-19.057367 1.1204606 4.3922668 17 14 1.6812926e+09
-32.747288 -4.1148019 8.8219862 39 15 1.6812926e+09
-20.897011 1.2288013 3.3024676 26 12 1.6812926e+09
-32.499043 -4.0145106 6.3525233 55 13 1.6812926e+09
-20.930891 1.238134 1.83136 26 10 1.6812926e+09
-32.449802 -3.956717 4.0038018 41 11 1.6812926e+09
-20.934937 1.2420465 0.36545336 26 8 1.6812926e+09
-32.386047 -3.9202726 1.7078531 40 9 1.6812926e+09
-19.692699 1.1751424 -1.0355021 1 6 1.6812926e+09
-32.298515 -3.8925121 -0.56724679 27 7 1.6812926e+09
-10.103663 0.60739279 -1.2367367 17 4 1.6812926e+09
-16.168295 -1.9491044 -1.4188918 9 5 1.6812926e+09
-8.243865 0.50103581 -1.5956316 34 2 1.6812926e+09
-9.6486521 -1.1646819 -1.5355301 9 3 1.6812926e+09
-6.0825348 0.37347192 -1.622385 8 0 1.6812926e+09
-6.8345795 -0.83206797 -1.5790148 7 1 1.6812926e+09
nan nan nan 0 14 1.6812926e+09
-31.634768 -3.8627269 8.5182695 2 15 1.6812926e+09
-20.732395 1.2917434 3.2771029 25 12 1.6812926e+09
-32.174168 -3.860357 6.2862768 22 13 1.6812926e+09
-20.777533 1.2982059 1.8182867 26 10 1.6812926e+09
-32.155399 -3.8069108 3.9657717 7 11 1.6812926e+09
-20.795761 1.3066401 0.36309731 27 8 1.6812926e+09
-32.161503 -3.7791958 1.6952924 1 9 1.6812926e+09
-19.710903 1.2452945 -1.0366837 33 6 1.6812926e+09
-31.89979 -3.7314785 -0.56000406 33 7 1.6812926e+09
-10.061858 0.64012992 -1.2318687 18 4 1.6812926e+09
-16.140699 -1.8857754 -1.4158474 9 5 1.6812926e+09
-8.2445154 0.52996719 -1.5961078 33 2 1.6812926e+09
-9.6551113 -1.1312834 -1.5359217 9 3 1.6812926e+09
-6.0908337 0.39533004 -1.6249714 8 0 1.6812926e+09
-6.8254886 -0.80557656 -1.5762072 7 1 1.6812926e+09
nan nan nan 0 14 1.6812926e+09
-30.859055 -3.6586132 8.3056679 3 15 1.6812926e+09
-19.993484 1.3157206 3.1608162 22 12 1.6812926e+09
-31.809608 -3.7039731 6.2124043 1 13 1.6812926e+09
-20.042032 1.3259522 1.7542272 21 10 1.6812926e+09
-31.653273 -3.6353962 3.9021854 1 11 1.6812926e+09
-20.080013 1.3355145 0.35066244 21 8 1.6812926e+09
-31.785702 -3.6169217 1.6747506 1 9 1.6812926e+09
-19.723642 1.3186975 -1.0376025 33 6 1.6812926e+09
-31.512754 -3.5746872 -0.55297947 31 7 1.6812926e+09
-10.034688 0.6753338 -1.2288264 18 4 1.6812926e+09
-16.142235 -1.8288603 -1.4154124 9 5 1.6812926e+09
-8.2377176 0.55840963 -1.5951555 31 2 1.6812926e+09
-9.6590014 -1.097574 -1.5359217 9 3 1.6812926e+09
-6.0821891 0.4160921 -1.6230316 8 0 1.6812926e+09
-6.8355184 -0.78258234 -1.5778917 7 1 1.6812926e+09
-19.379732 1.3466218 4.4697571 16 14 1.6812926e+09
-31.076189 -3.5689361 8.3605947 71 15 1.6812926e+09
-19.887529 1.3819643 3.1448169 33 12 1.6812926e+09
-31.418154 -3.5416667 6.1332903 3 13 1.6812926e+09
-19.910578 1.387066 1.7431149 24 10 1.6812926e+09
-31.215071 -3.4691324 3.8465097 2 11 1.6812926e+09
-19.96801 1.3980823 0.34878629 29 8 1.6812926e+09
-31.115723 -3.430608 1.6387696 1 9 1.6812926e+09
-19.768724 1.3910468 -1.040228 34 6 1.6812926e+09
-31.152346 -3.4236512 -0.54643482 31 7 1.6812926e+09
-10.012468 0.70895171 -1.2263924 17 4 1.6812926e+09
-16.12624 -1.7700504 -1.4134554 8 5 1.6812926e+09
-8.2478552 0.58947605 -1.5975363 24 2 1.6812926e+09
-9.6703224 -1.0629773 -1.5370961 9 3 1.6812926e+09
-6.080699 0.43732038 -1.6230316 8 0 1.6812926e+09
-6.830946 -0.75790638 -1.5762072 7 1 1.6812926e+09
-19.489107 1.4226073 4.4961491 23 14 1.6812926e+09
-32.69178 -3.6391461 8.7922602 88 15 1.6812926e+09
-19.71019 1.4387771 3.1175013 23 12 1.6812926e+09
-30.866774 -3.3703561 6.0231967 14 13 1.6812926e+09
-19.761549 1.4460044 1.7304772 17 10 1.6812926e+09
-30.822378 -3.3165529 3.7966144 25 11 1.6812926e+09
-19.828394 1.4578661 0.34643027 18 8 1.6812926e+09
-30.789892 -3.2858925 1.6209754 39 9 1.6812926e+09
-19.367882 1.4307649 -1.0193553 30 6 1.6812926e+09
-30.801216 -3.2762346 -0.54006469 33 7 1.6812926e+09
-9.9851875 0.74205422 -1.22335 19 4 1.6812926e+09
-16.107555 -1.7111106 -1.4112809 9 5 1.6812926e+09
-8.2433004 0.61807883 -1.5970602 15 2 1.6812926e+09
-9.6764288 -1.0294775 -1.5374877 8 3 1.6812926e+09
-6.083951 0.4589079 -1.6243248 8 0 1.6812926e+09
-6.8432374 -0.73510456 -1.5784532 7 1 1.6812926e+09
-19.457304 1.4885817 4.4899721 26 14 1.6812926e+09
-31.037918 -3.3451602 8.3437939 90 15 1.6812926e+09
-19.59425 1.4990832 3.099941 26 12 1.6812926e+09
-30.595251 -3.2326355 5.9679117 50 13 1.6812926e+09
-19.642157 1.506207 1.7204543 29 10 1.6812926e+09
-30.507986 -3.1749885 3.7564545 44 11 1.6812926e+09
-19.666172 1.5149624 0.34368148 29 8 1.6812926e+09
-30.451023 -3.1422112 1.6025269 37 9 1.6812926e+09
-19.148706 1.4817786 -1.0080656 54 6 1.6812926e+09
-30.437006 -3.1300311 -0.53347641 24 7 1.6812926e+09
-9.9577961 0.77497482 -1.2203077 19 4 1.6812926e+09
-16.108473 -1.6543639 -1.4108459 9 5 1.6812926e+09
-8.2484322 0.64742726 -1.5984887 14 2 1.6812926e+09
-9.6897879 -0.99670941 -1.5390538 9 3 1.6812926e+09
-6.0847197 0.48033285 -1.6249714 8 0 1.6812926e+09
-6.855454 -0.71222633 -1.5806993 7 1 1.6812926e+09
-19.383995 1.5510446 4.4742498 24 14 1.6812926e+09
-30.456116 -3.1748588 8.1841812 41 15 1.6812926e+09
-19.470747 1.5580062 3.0812106 21 12 1.6812926e+09
-30.26211 -3.0906088 5.900712 50 13 1.6812926e+09
-19.517618 1.5651952 1.7099956 23 10 1.6812926e+09
-30.178171 -3.0341687 3.7144694 38 11 1.6812926e+09
-19.563595 1.5757656 0.34197989 21 8 1.6812926e+09
-30.11153 -3.0009358 1.5840786 38 9 1.6812926e+09
-19.143417 1.548611 -1.0080656 30 6 1.6812926e+09
-29.059809 -2.8857217 -0.5091303 13 7 1.6812926e+09
-9.9377184 0.80831814 -1.218178 18 4 1.6812926e+09
-16.089369 -1.5956599 -1.4086714 9 5 1.6812926e+09
-8.2583523 0.67722106 -1.6008694 17 2 1.6812926e+09
-9.6932077 -0.9628796 -1.5390538 9 3 1.6812926e+09
-6.0781927 0.50117129 -1.6236781 8 0 1.6812926e+09
-6.8627458 -0.68878174 -1.5818224 7 1 1.6812926e+09
-19.286211 1.6109837 4.4529114 23 14 1.6812926e+09
-30.111393 -3.032656 8.0885439 42 15 1.6812926e+09
-19.332308 1.6148506 3.0601385 19 12 1.6812926e+09
-29.943007 -2.9523952 5.8363719 39 13 1.6812926e+09
-19.375538 1.621877 1.6980118 19 10 1.6812926e+09
-29.85465 -2.9016209 3.6733968 38 11 1.6812926e+09
-19.403543 1.6310507 0.33927473 18 8 1.6812926e+09
-29.719238 -2.8570442 1.5628824 40 9 1.6812926e+09
-19.152821 1.6166857 -1.0088532 41 6 1.6812926e+09
-28.569578 -2.7362859 -0.50036049 8 7 1.6812926e+09
-9.9175282 0.84153068 -1.2160482 19 4 1.6812926e+09
-16.040298 -1.5342553 -1.4038874 9 5 1.6812926e+09
-8.2585068 0.70481229 -1.6013457 19 2 1.6812926e+09
-9.7012615 -0.93120468 -1.5398368 9 3 1.6812926e+09
-6.0764065 0.52238506 -1.6236781 8 0 1.6812926e+09
-6.8602586 -0.6643492 -1.5806993 7 1 1.6812926e+09
-19.152136 1.6637446 4.4231505 22 14 1.6812926e+09
-29.796793 -2.9011412 8.0013056 42 15 1.6812926e+09
-19.201384 1.6680394 3.0402369 22 12 1.6812926e+09
-29.63748 -2.8230159 5.7748914 38 13 1.6812926e+09
-19.238264 1.6780192 1.6864637 18 10 1.6812926e+09
-29.528599 -2.7658665 3.6320202 33 11 1.6812926e+09
-19.256092 1.6829684 0.33678779 18 8 1.6812926e+09
-29.335785 -2.721971 1.5422097 39 9 1.6812926e+09
-19.1772 1.6828116 -1.0104285 35 6 1.6812926e+09
nan nan nan 0 7 1.6812926e+09
-9.9319859 0.87594289 -1.218178 18 4 1.6812926e+09
-16.04034 -1.4805961 -1.4034525 1 5 1.6812926e+09
-8.2217712 0.73058718 -1.5946792 21 2 1.6812926e+09
-9.7118311 -0.8980208 -1.5410115 9 3 1.6812926e+09
-6.084167 0.54445624 -1.6262647 8 0 1.6812926e+09
-6.8624239 -0.64159608 -1.5806993 7 1 1.6812926e+09
-19.000639 1.7174164 4.3894587 21 14 1.6812926e+09
-29.448475 -2.7634368 7.9050212 35 15 1.6812926e+09
-19.06756 1.7234838 3.0199454 22 12 1.6812926e+09
-29.170597 -2.6757555 5.6819553 1 13 1.6812926e+09
-19.093695 1.7292143 1.6742618 17 10 1.6812926e+09
-29.214327 -2.6335402 3.5921648 34 11 1.6812926e+09
-19.118168 1.7381676 0.33447534 18 8 1.6812926e+09
-29.081524 -2.5959828 1.5283407 27 9 1.6812926e+09
-19.173693 1.7499692 -1.0105597 24 6 1.6812926e+09
-29.043617 -2.5772712 -0.50834495 2 7 1.6812926e+09
-9.876976 0.90583837 -1.2117889 18 4 1.6812926e+09
-14.021372 -1.2418449 -1.2260094 29 5 1.6812926e+09
-8.1849594 0.7561143 -1.5880129 23 2 1.6812926e+09
-9.7198238 -0.86455464 -1.5417944 9 3 1.6812926e+09
-6.0726113 0.56479329 -1.6236781 8 0 1.6812926e+09
-6.867156 -0.61665928 -1.5812609 7 1 1.6812926e+09
-18.861128 1.7711912 4.3585749 23 14 1.6812926e+09
-29.123619 -2.6303763 7.8151989 34 15 1.6812926e+09
-18.92621 1.777321 2.9984829 23 12 1.6812926e+09
-28.996412 -2.5577128 5.6462107 15 13 1.6812926e+09
-18.963253 1.7874875 1.6633673 18 10 1.6812926e+09
-28.884657 -2.5021546 3.5504839 21 11 1.6812926e+09
-18.994709 1.7971509 0.33242467 19 8 1.6812926e+09
-28.852047 -2.4689043 1.5157801 26 9 1.6812926e+09
-12.252913 1.162992 -0.64535099 8 6 1.6812926e+09
-27.485876 -2.3421237 -0.48090103 8 7 1.6812926e+09
-9.8637104 0.94108891 -1.210572 18 4 1.6812926e+09
-13.936288 -1.1852665 -1.2181811 26 5 1.6812926e+09
-8.1358528 0.78021926 -1.5789659 22 2 1.6812926e+09
-9.7277031 -0.83104348 -1.5425774 9 3 1.6812926e+09
-6.0802178 0.58691812 -1.6262647 8 0 1.6812926e+09
-6.8814011 -0.59373987 -1.5840685 8 1 1.6812926e+09
-18.75268 1.8303601 4.3349905 25 14 1.6812926e+09
-28.784193 -2.4933383 7.7214994 27 15 1.6812926e+09
-18.801601 1.8351519 2.9797523 21 12 1.6812926e+09
-22.833405 -1.9287856 4.4432869 7 13 1.6812926e+09
-18.825533 1.8408132 1.6518192 17 10 1.6812926e+09
-28.745262 -2.3839409 3.5322294 7 11 1.6812926e+09
-18.86145 1.850982 0.33019951 19 8 1.6812926e+09
-27.509409 -2.2570975 1.444734 6 9 1.6812926e+09
-18.917198 1.8631251 -0.99769473 22 6 1.6812926e+09
-27.538727 -2.2498369 -0.48168638 6 7 1.6812926e+09
-9.8751793 0.9769823 -1.2123975 17 4 1.6812926e+09
-14.044593 -1.1451471 -1.2273141 31 5 1.6812926e+09
-8.0816536 0.80491459 -1.5689664 26 2 1.6812926e+09
-9.7331448 -0.79558647 -1.542969 9 3 1.6812926e+09
-6.0733256 0.60765624 -1.6249714 9 0 1.6812926e+09
-6.8737216 -0.56890541 -1.5818224 7 1 1.6812926e+09
-18.634682 1.8845222 4.3091602 24 14 1.6812926e+09
-28.682013 -2.3836291 7.6917739 4 15 1.6812926e+09
-18.655043 1.8865955 2.9575095 22 12 1.6812926e+09
-22.622293 -1.8314015 4.4008703 9 13 1.6812926e+09
-18.690147 1.8934506 1.640489 17 10 1.6812926e+09
-28.303213 -2.2477608 3.4768577 7 11 1.6812926e+09
-18.728048 1.9039046 0.32797432 19 8 1.6812926e+09
-27.576851 -2.1657593 1.4478742 6 9 1.6812926e+09
-18.749144 1.9126636 -0.98916185 24 6 1.6812926e+09
-27.865387 -2.1786871 -0.48727116 1 7 1.6812926e+09
-9.8939266 1.0137273 -1.2151356 18 4 1.6812926e+09
-13.954155 -1.0887228 -1.2190509 29 5 1.6812926e+09
-8.0299711 0.8280744 -1.5594431 23 2 1.6812926e+09
-9.743247 -0.76218784 -1.5441436 9 3 1.6812926e+09
-6.0783739 0.62960088 -1.6269113 8 0 1.6812926e+09
-6.8780937 -0.5451023 -1.582384 7 1 1.6812926e+09
-18.492311 1.9353454 4.2777152 22 14 1.6812926e+09
-28.377197 -2.2585351 7.6077671 1 15 1.6812926e+09
-18.523092 1.9385818 2.937608 21 12 1.6812926e+09
-22.427916 -1.736845 4.3617897 10 13 1.6812926e+09
-18.542242 1.9438658 1.6280693 18 10 1.6812926e+09
-28.038717 -2.128247 3.4433913 1 11 1.6812926e+09
-18.611908 1.9577504 0.32605454 19 8 1.6812926e+09
-27.678848 -2.0765982 1.4528462 6 9 1.6812926e+09
-18.628147 1.9660347 -0.98312318 26 6 1.6812926e+09
-27.703321 -2.0687201 -0.48430425 6 7 1.6812926e+09
-9.8582487 1.0448518 -1.2111804 18 4 1.6812926e+09
-13.818789 -1.0295985 -1.2068734 26 5 1.6812926e+09
-7.963582 0.84931833 -1.5470626 24 2 1.6812926e+09
-9.7458477 -0.72817278 -1.5441436 9 3 1.6812926e+09
-6.0713367 0.65029883 -1.6256181 8 0 1.6812926e+09
-6.8848119 -0.52146119 -1.5835069 7 1 1.6812926e+09
-18.364346 1.986771 4.2496386 23 14 1.6812926e+09
-28.028515 -2.1322939 7.5121288 1 15 1.6812926e+09
-18.383642 1.9888728 2.9165359 22 12 1.6812926e+09
-22.264965 -1.6460264 4.3289046 11 13 1.6812926e+09
-18.404116 1.9943459 1.616521 21 10 1.6812926e+09
-27.541094 -1.9937272 3.3813262 3 11 1.6812926e+09
-18.480713 2.0091865 0.32387301 19 8 1.6812926e+09
-27.558926 -1.9708649 1.4461733 8 9 1.6812926e+09
-18.49708 2.0175006 -0.9765594 26 6 1.6812926e+09
-27.593191 -1.9636459 -0.48225361 10 7 1.6812926e+09
-9.8816748 1.0822335 -1.2145271 19 4 1.6812926e+09
-13.685667 -0.97160965 -1.1949134 30 5 1.6812926e+09
-7.9117818 0.87172514 -1.5375395 25 2 1.6812926e+09
-9.7581816 -0.69485521 -1.5457096 9 3 1.6812926e+09
-6.0738301 0.67202026 -1.6269113 8 0 1.6812926e+09
-6.8914495 -0.49777985 -1.58463 7 1 1.6812926e+09
-18.236246 2.0373273 4.2215624 24 14 1.6812926e+09
-27.693758 -2.0095661 7.4203677 2 15 1.6812926e+09
-18.278423 2.0420556 2.9009268 23 12 1.6812926e+09
-22.113901 -1.5572315 4.2984023 11 13 1.6812926e+09
-18.298042 2.0474889 1.6078056 21 10 1.6812926e+09
-27.33499 -1.8828783 3.3551617 25 11 1.6812926e+09
-18.359324 2.060847 0.32186598 19 8 1.6812926e+09
-27.341467 -1.8593718 1.4343977 29 9 1.6812926e+09
-18.380768 2.0697536 -0.97078323 27 6 1.6812926e+09
-27.290634 -1.8463422 -0.47684336 34 7 1.6812926e+09
-9.8482475 1.1133701 -1.2108762 18 4 1.6812926e+09
-13.604491 -0.91810191 -1.18752 27 5 1.6812926e+09
-7.8647981 0.89433616 -1.5289685 25 2 1.6812926e+09
-9.7630119 -0.6609565 -1.5461011 9 3 1.6812926e+09
-6.0810447 0.69431633 -1.6294978 8 0 1.6812926e+09
-6.8882847 -0.47338381 -1.5835069 7 1 1.6812926e+09
-18.12738 2.0892465 4.1979785 25 14 1.6812926e+09
-27.259708 -1.8823634 7.3021126 30 15 1.6812926e+09
-18.153437 2.0922644 2.8821962 23 12 1.6812926e+09
-21.908617 -1.4658954 4.2574153 11 13 1.6812926e+09
-18.167082 2.0970576 1.5969112 22 10 1.6812926e+09
-27.054167 -1.7686238 3.3198698 29 11 1.6812926e+09
-18.222904 2.1099586 0.31959718 21 8 1.6812926e+09
-27.051317 -1.744749 1.4188277 30 9 1.6812926e+09
-18.251919 2.1197779 -0.96435076 29 6 1.6812926e+09
-27.00506 -1.7322979 -0.47173852 32 7 1.6812926e+09
-9.8615551 1.1497546 -1.2130059 17 4 1.6812926e+09
-13.538023 -0.86613196 -1.1814312 26 5 1.6812926e+09
-7.8080039 0.91548455 -1.5184928 25 2 1.6812926e+09
-9.7800436 -0.62782925 -1.5484502 9 3 1.6812926e+09
-6.0833802 0.71610487 -1.6307911 8 0 1.6812926e+09
-6.8996186 -0.44997704 -1.5857531 7 1 1.6812926e+09
-17.996601 2.1378424 4.1693401 24 14 1.6812926e+09
-27.005848 -1.7700937 7.2323222 29 15 1.6812926e+09
-18.040583 2.1430833 2.8654165 23 12 1.6812926e+09
-21.725014 -1.377414 4.2207179 9 13 1.6812926e+09
-18.055784 2.1480927 1.5877596 21 10 1.6812926e+09
-26.772594 -1.661026 3.2845778 29 11 1.6812926e+09
-18.101257 2.1599212 0.31759015 21 8 1.6812926e+09
-26.785624 -1.6336986 1.4045662 25 9 1.6812926e+09
-18.122944 2.1689279 -0.95791829 29 6 1.6812926e+09
-26.748966 -1.6220908 -0.46715727 25 7 1.6812926e+09
-9.864872 1.1850601 -1.2139186 18 4 1.6812926e+09
-13.419153 -0.81146264 -1.170776 19 5 1.6812926e+09
-7.7537575 0.93518901 -1.5084933 26 2 1.6812926e+09
-9.789465 -0.59584749 -1.5496247 9 3 1.6812926e+09
-6.0760493 0.73675275 -1.6294978 8 0 1.6812926e+09
-6.9035788 -0.42604184 -1.5863147 7 1 1.6812926e+09
-17.890272 2.185389 4.1463175 22 14 1.6812926e+09
-26.751249 -1.664288 7.1625323 27 15 1.6812926e+09
-17.920626 2.1891122 2.8474662 23 12 1.6812926e+09
-21.624126 -1.2990131 4.2002244 9 13 1.6812926e+09
-17.929522 2.1965582 1.577301 22 10 1.6812926e+09
-26.520607 -1.5524369 3.2529368 23 11 1.6812926e+09
-17.97987 2.2059226 0.31558314 22 8 1.6812926e+09
-26.50676 -1.5284324 1.3896505 25 9 1.6812926e+09
-18.014059 2.2165039 -0.95253593 27 6 1.6812926e+09
-26.479959 -1.5129777 -0.46235788 24 7 1.6812926e+09
-9.8362617 1.2147211 -1.2108762 19 4 1.6812926e+09
-13.369555 -0.76395696 -1.1662093 21 5 1.6812926e+09
-7.7163501 0.95800805 -1.501827 26 2 1.6812926e+09
-9.7988806 -0.56209999 -1.5507994 10 3 1.6812926e+09
-6.0806293 0.75885689 -1.6314377 8 0 1.6812926e+09
-6.9098177 -0.40343365 -1.5874376 7 1 1.6812926e+09
-17.766514 2.2332296 4.1193643 21 14 1.6812926e+09
-26.46036 -1.5534371 7.0830493 27 15 1.6812926e+09
-17.802622 2.2377839 2.829906 23 12 1.6812926e+09
-21.738789 -1.229784 4.2216711 23 13 1.6812926e+09
-17.823301 2.2435515 1.5685855 23 10 1.6812926e+09
-26.250845 -1.44467 3.2191663 26 11 1.6812926e+09
-17.845585 2.2526929 0.31335795 22 8 1.6812926e+09
-26.247688 -1.4215399 1.3757813 32 9 1.6812926e+09
-17.884853 2.2639966 -0.94610345 26 6 1.6812926e+09
-26.237974 -1.4072399 -0.45803836 31 7 1.6812926e+09
-9.8615007 1.2528064 -1.2145271 18 4 1.6812926e+09
-13.337448 -0.71307659 -1.163165 23 5 1.6812926e+09
-7.6569672 0.97777462 -1.4908751 27 2 1.6812926e+09
-9.8007832 -0.52789205 -1.5507994 10 3 1.6812926e+09
-6.0779433 0.7800777 -1.6314377 9 0 1.6812926e+09
-6.9112492 -0.37810516 -1.5874376 7 1 1.6812926e+09
-17.647478 2.280858 4.093534 22 14 1.6812926e+09
-26.178671 -1.4451714 7.0061507 31 15 1.6812926e+09
-17.672253 2.284075 2.8103948 22 12 1.6812926e+09
-21.750301 -1.1542858 4.2231007 37 13 1.6812926e+09
-17.703815 2.2944472 1.5587806 24 10 1.6812926e+09
-26.183861 -1.3493125 3.2103431 39 11 1.6812926e+09
-17.73558 2.304868 0.31156906 19 8 1.6812926e+09
-26.242746 -1.3248225 1.3752581 43 9 1.6812926e+09
-17.76256 2.3146822 -0.94006479 29 6 1.6812926e+09
-26.272684 -1.3171508 -0.45856196 41 7 1.6812926e+09
-9.8223963 1.2844317 -1.2102678 17 4 1.6812926e+09
-13.208026 -0.6598838 -1.1516399 22 5 1.6812926e+09
-7.6048422 0.99809813 -1.4813519 23 2 1.6812926e+09
-9.8025665 -0.49367777 -1.5507994 10 3 1.6812926e+09
-6.0751839 0.8012889 -1.6314377 9 0 1.6812926e+09
-6.9149604 -0.35410434 -1.5879992 7 1 1.6812926e+09
-17.527914 2.3307414 4.0677037 24 14 1.6812926e+09
-26.123497 -1.3460943 6.9899955 41 15 1.6812926e+09
-17.556065 2.3344996 2.793225 22 12 1.6812926e+09
-21.737226 -1.0737081 4.2197647 42 13 1.6812926e+09
-17.596952 2.3430727 1.5500649 21 10 1.6812926e+09
-26.228291 -1.2552397 3.2152112 40 11 1.6812926e+09
-17.630796 2.3538525 0.30986744 22 8 1.6812926e+09
-26.264668 -1.2340335 1.376174 33 9 1.6812926e+09
-17.650444 2.3627486 -0.93455112 29 6 1.6812926e+09
-26.30209 -1.2266028 -0.45899826 41 7 1.6812926e+09
-9.7957191 1.3157338 -1.2075295 19 4 1.6812926e+09
-13.272443 -0.6166864 -1.1570764 22 5 1.6812926e+09
-7.5670834 1.0213609 -1.4746855 24 2 1.6812926e+09
-9.8166418 -0.4583278 -1.5527569 10 3 1.6812926e+09
-6.0795283 0.82346475 -1.6333777 9 0 1.6812926e+09
-6.9210205 -0.33019993 -1.5891223 7 1 1.6812926e+09
-17.415884 2.3777311 4.0435581 23 14 1.6812926e+09
-26.166632 -1.2567587 7.0003347 44 15 1.6812926e+09
-17.420582 2.3783853 2.7729332 23 12 1.6812926e+09
-21.713875 -0.9965809 4.2145224 41 13 1.6812926e+09
-17.489967 2.3909805 1.5413493 22 10 1.6812926e+09
-26.175493 -1.1611391 3.2082136 33 11 1.6812926e+09
-17.511036 2.4000962 0.30790406 22 8 1.6812926e+09
-26.136623 -1.1365734 1.3692393 19 9 1.6812926e+09
-17.533264 2.4093807 -0.92877507 31 6 1.6812926e+09
-26.131401 -1.1272128 -0.45594409 31 7 1.6812926e+09
-9.7468204 1.3438109 -1.2020532 19 4 1.6812926e+09
-13.167522 -0.56571925 -1.1477257 21 5 1.6812926e+09
-7.5099912 1.0403477 -1.4642099 22 2 1.6812926e+09
-9.818182 -0.4240585 -1.5527569 10 3 1.6812926e+09
-6.0766168 0.84468126 -1.6333777 9 0 1.6812926e+09
-6.9172635 -0.30582058 -1.5879992 7 1 1.6812926e+09
-17.304161 2.4209461 4.0194125 22 14 1.6812926e+09
-26.119989 -1.167706 6.9867644 37 15 1.6812926e+09
-17.329454 2.4244995 2.7596657 23 12 1.6812926e+09
-21.731771 -0.92519915 4.2173815 41 13 1.6812926e+09
-17.380821 2.4347908 1.5324159 23 10 1.6812926e+09
-25.879206 -1.0619678 3.1714005 17 11 1.6812926e+09
-17.394066 2.4428451 0.30598429 22 8 1.6812926e+09
-25.863354 -1.0387254 1.3547162 15 9 1.6812926e+09
-17.431236 2.4542739 -0.92378652 31 6 1.6812926e+09
-25.895405 -1.0264437 -0.45175552 24 7 1.6812926e+09
-9.7079134 1.3712605 -1.197794 19 4 1.6812926e+09
-13.104715 -0.51717645 -1.142072 22 5 1.6812926e+09
-7.4676237 1.05972 -1.4565912 22 2 1.6812926e+09
-9.8343363 -0.392095 -1.5551059 10 3 1.6812926e+09
-6.06885 0.86520439 -1.6320844 9 0 1.6812926e+09
-6.9255915 -0.28197518 -1.5896838 7 1 1.6812926e+09
-17.201561 2.4678326 3.9975126 18 14 1.6812926e+09
-25.877785 -1.0663365 6.9208517 14 15 1.6812926e+09
-17.21089 2.4691844 2.7421055 25 12 1.6812926e+09
-21.705441 -0.84817922 4.2116623 41 13 1.6812926e+09
-17.260851 2.482513 1.5226108 22 10 1.6812926e+09
-25.609993 -0.96133828 3.1379342 29 11 1.6812926e+09
-17.290985 2.4930172 0.30432633 22 8 1.6812926e+09
-25.577579 -0.93331236 1.3395387 29 9 1.6812926e+09
-17.308466 2.5017066 -0.91774786 29 6 1.6812926e+09
-25.67651 -0.92797124 -0.44787234 33 7 1.6812926e+09
-9.6708994 1.402198 -1.1938387 18 4 1.6812926e+09
-13.121373 -0.47197163 -1.1433766 22 5 1.6812926e+09
-7.4250207 1.0801183 -1.4489726 21 2 1.6812926e+09
-9.8455153 -0.35812804 -1.5566721 11 3 1.6812926e+09
-6.0681825 0.88673323 -1.632731 9 0 1.6812926e+09
-6.91923 -0.2575219 -1.5879992 7 1 1.6812926e+09
-17.050203 2.5099161 3.9643826 22 14 1.6812926e+09
-25.579855 -0.9601047 6.840076 11 15 1.6812926e+09
-17.111334 2.5189333 2.7276673 25 12 1.6812926e+09
-21.683878 -0.76774549 4.2068963 42 13 1.6812926e+09
-17.165846 2.530031 1.5149847 22 10 1.6812926e+09
-25.578472 -0.87074876 3.1336749 43 11 1.6812926e+09
-17.173378 2.5372729 0.30240655 23 8 1.6812926e+09
-25.613119 -0.84510028 1.3412396 41 9 1.6812926e+09
-17.198374 2.5471036 -0.91236562 30 6 1.6812926e+09
-25.654608 -0.83751786 -0.44743603 42 7 1.6812926e+09
-9.6463108 1.4330268 -1.1914049 16 4 1.6812926e+09
-13.045776 -0.42363381 -1.1366355 22 5 1.6812926e+09
-7.3702312 1.098421 -1.4389731 19 2 1.6812926e+09
-9.8491726 -0.32384086 -1.5570637 13 3 1.6812926e+09
-6.0746026 0.90934253 -1.6353174 9 0 1.6812926e+09
-6.9249563 -0.2335352 -1.5891223 7 1 1.6812926e+09
-16.955065 2.5533738 3.9441676 19 14 1.6812926e+09
-25.34395 -0.86705464 6.7761021 10 15 1.6812926e+09
-17.012543 2.5620477 2.7132289 22 12 1.6812926e+09
-21.683851 -0.69575572 4.2064199 38 13 1.6812926e+09
-17.033783 2.571336 1.5040902 22 10 1.6812926e+09
-25.618557 -0.782601 3.1382382 43 11 1.6812926e+09
-17.046236 2.5762665 0.30031228 23 8 1.6812926e+09
-25.665691 -0.76164949 1.3438565 42 9 1.6812926e+09
-17.096035 2.5899022 -0.90737706 31 6 1.6812926e+09
-25.699852 -0.74920738 -0.44817778 42 7 1.6812926e+09
-9.6611309 1.4679928 -1.1938387 22 4 1.6812926e+09
-13.054577 -0.38059044 -1.137288 21 5 1.6812926e+09
-7.3372393 1.1196916 -1.433259 19 2 1.6812926e+09
-9.8699884 -0.29004833 -1.5601957 19 3 1.6812926e+09
-6.0666175 0.9298082 -1.6340241 9 0 1.6812926e+09
-6.9281282 -0.21064562 -1.5896838 7 1 1.6812926e+09
-16.864191 2.5999138 3.925076 38 14 1.6812926e+09
-25.1175 -0.77149594 6.7147121 11 15 1.6812926e+09
-16.883911 2.6029685 2.6941082 37 12 1.6812926e+09
-21.691057 -0.620202 4.2073731 35 13 1.6812926e+09
-16.909481 2.6099408 1.4938494 38 10 1.6812926e+09
-25.59137 -0.69236022 3.1345875 18 11 1.6812926e+09
-16.930922 2.6193101 0.29843614 39 8 1.6812926e+09
-25.62327 -0.67087066 1.3415014 26 9 1.6812926e+09
-16.98081 2.6331027 -0.90173221 34 6 1.6812926e+09
-25.577372 -0.6562655 -0.44599622 25 7 1.6812926e+09
-9.6559477 1.5017076 -1.1938387 19 4 1.6812926e+09
-13.070824 -0.33312643 -1.1385927 22 5 1.6812926e+09
-7.2993398 1.1399866 -1.4265927 18 2 1.6812926e+09
-9.8857498 -0.25598428 -1.5625448 24 3 1.6812926e+09
-6.0681062 0.95172876 -1.6353174 9 0 1.6812926e+09
-6.9239826 -0.18511784 -1.5885607 7 1 1.6812926e+09
-16.86223 2.6599042 3.9267604 30 14 1.6812926e+09
-24.876215 -0.67713189 6.6494455 11 15 1.6812926e+09
-16.882038 2.6630435 2.6952789 38 12 1.6812926e+09
-21.720074 -0.54516542 4.212616 34 13 1.6812926e+09
-16.909641 2.6734567 1.4947209 40 10 1.6812926e+09
-25.4175 -0.59884393 3.1129863 22 11 1.6812926e+09
-16.948362 2.685653 0.2989161 43 8 1.6812926e+09
-25.398428 -0.57179791 1.3295949 19 9 1.6812926e+09
-16.877354 2.6804328 -0.89674377 32 6 1.6812926e+09
-25.352098 -0.56189859 -0.44202581 18 7 1.6812926e+09
-9.6503792 1.5370882 -1.1938387 19 4 1.6812926e+09
-12.97231 -0.28527337 -1.1298945 23 5 1.6812926e+09
-7.2856226 1.1639082 -1.4246881 16 2 1.6812926e+09
-9.8742409 -0.22119278 -1.5605873 26 3 1.6812926e+09
-6.0647473 0.97290462 -1.6353174 9 0 1.6812926e+09
-6.9367642 -0.16123876 -1.5913684 7 1 1.6812926e+09
-16.849964 2.7213008 3.926199 10 14 1.6812926e+09
-24.637094 -0.58021951 6.5848255 10 15 1.6812926e+09
-16.879478 2.7260833 2.6964493 11 12 1.6812926e+09
-21.704754 -0.46518201 4.2092795 34 13 1.6812926e+09
-16.89283 2.7312727 1.4940673 13 10 1.6812926e+09
-25.13909 -0.50444007 3.0786071 17 11 1.6812926e+09
-16.931482 2.743597 0.29878518 25 8 1.6812926e+09
-25.155649 -0.47844043 1.3167726 16 9 1.6812926e+09
-16.757004 2.7213099 -0.89083642 33 6 1.6812926e+09
-25.096491 -0.46854708 -0.4375318 17 7 1.6812926e+09
-9.6425056 1.5703657 -1.1935346 18 4 1.6812926e+09
-12.935876 -0.23928566 -1.1266326 23 5 1.6812926e+09
-7.291203 1.1909175 -1.4265927 14 2 1.6812926e+09
-9.8576727 -0.18638907 -1.5578467 34 3 1.6812926e+09
-6.0684633 0.99524319 -1.6372573 9 0 1.6812926e+09
-6.9324136 -0.13692445 -1.5902454 7 1 1.6812926e+09
-16.872093 2.7823188 3.9334986 6 14 1.6812926e+09
-24.440891 -0.49447313 6.531836 11 15 1.6812926e+09
-16.882526 2.7840528 2.6984007 8 12 1.6812926e+09
-21.708632 -0.39324889 4.2097564 34 13 1.6812926e+09
-16.900394 2.7930672 1.4955926 8 10 1.6812926e+09
-24.949657 -0.41348401 3.0551808 17 11 1.6812926e+09
-16.959282 2.8058529 0.29943964 9 8 1.6812926e+09
-24.909969 -0.39109331 1.3038195 16 9 1.6812926e+09
-16.656761 2.7617445 -0.88597918 31 6 1.6812926e+09
-24.888027 -0.37771636 -0.4338668 16 7 1.6812926e+09
-9.6592751 1.6059996 -1.1962727 18 4 1.6812926e+09
-12.871853 -0.19538164 -1.1209788 24 5 1.6812926e+09
-7.2942638 1.2175752 -1.4280213 15 2 1.6812926e+09
-9.8483877 -0.15182137 -1.5562806 30 3 1.6812926e+09
-6.0649524 1.01642 -1.6372573 9 0 1.6812926e+09
-6.9425726 -0.11410165 -1.5924914 7 1 1.6812926e+09
-28.642756 4.8273706 6.6872287 1 14 1.6812926e+09
-24.215487 -0.40531245 6.4710932 10 15 1.6812926e+09
-28.701895 4.8373542 4.5941095 1 12 1.6812926e+09
-21.709869 -0.31746918 4.2097564 34 13 1.6812926e+09
-28.752333 4.8510246 2.5479982 18 10 1.6812926e+09
-24.725157 -0.32339573 3.0274947 17 11 1.6812926e+09
-17.124372 2.8946314 0.30253744 9 8 1.6812926e+09
-24.686508 -0.30135462 1.2920439 18 9 1.6812926e+09
-16.555944 2.8044338 -0.88112193 32 6 1.6812926e+09
-24.656746 -0.28807977 -0.42980909 17 7 1.6812926e+09
-9.4799232 1.6101738 -1.1746716 18 4 1.6812926e+09
-12.780338 -0.147109 -1.112933 23 5 1.6812926e+09
-7.2923889 1.2434427 -1.4284974 18 2 1.6812926e+09
-9.8241673 -0.11713719 -1.5523653 27 3 1.6812926e+09
-6.0661283 1.0384008 -1.6385506 9 0 1.6812926e+09
-6.9526877 -0.088786036 -1.5947375 7 1 1.6812926e+09
-28.707359 4.9413786 6.7063208 16 14 1.6812926e+09
-23.970442 -0.31747171 6.40518 11 15 1.6812926e+09
