# .PCD v0.7 - Point Cloud Data file format
VERSION 0.7
FIELDS x y z intensity ring timestamp
SIZE 4 4 4 4 2 8
TYPE F F F F U F
COUNT 1 1 1 1 1 1
WIDTH 939
HEIGHT 1
VIEWPOINT 0 0 0 1 0 0 0
POINTS 939
DATA ascii
3.3124533 -1.5098349 0.96478349 52 15 1.6812914e+09
3.3805687 -2.3623555 0.64621133 2 12 1.6812914e+09
3.3735919 -1.5460773 0.713938 3 13 1.6812914e+09
9.3020344 -6.5064168 0.99008924 6 10 1.6812914e+09
3.367707 -1.5497513 0.45027557 2 11 1.6812914e+09
9.3153248 -6.5205674 0.19786665 1 8 1.6812914e+09
3.382206 -1.5599577 0.19338135 3 9 1.6812914e+09
3.0596268 -2.1418719 -0.19455047 43 6 1.6812914e+09
3.0792031 -1.4219524 -0.058596451 54 7 1.6812914e+09
3.0198348 -2.1163385 -0.44784164 45 4 1.6812914e+09
3.0386889 -1.4033227 -0.2892147 52 5 1.6812914e+09
2.9775877 -2.0897892 -0.69901139 45 2 1.6812914e+09
3.0110924 -1.3893831 -0.52032626 48 3 1.6812914e+09
3.387569 -2.3804564 -1.0992644 12 0 1.6812914e+09
2.9817123 -1.3715159 -0.7485159 48 1 1.6812914e+09
3.4965866 -2.4617021 0.97761905 8 14 1.6812914e+09
3.3115535 -1.5234014 0.96607596 49 15 1.6812914e+09
3.3763394 -2.3769863 0.64699179 2 12 1.6812914e+09
3.3748605 -1.5609263 0.71536779 3 13 1.6812914e+09
3.3719857 -2.3748062 0.35777435 4 10 1.6812914e+09
3.3712842 -1.5656672 0.45149252 2 11 1.6812914e+09
9.3211021 -6.573216 0.19847748 9 8 1.6812914e+09
3.3790047 -1.572805 0.1935122 2 9 1.6812914e+09
3.0602899 -2.1582978 -0.19507557 43 6 1.6812914e+09
3.0810223 -1.4358507 -0.058727346 54 7 1.6812914e+09
3.0164819 -2.1297314 -0.44845015 45 4 1.6812914e+09
3.0473249 -1.4202151 -0.29051945 50 5 1.6812914e+09
2.9822943 -2.1086774 -0.70186841 45 2 1.6812914e+09
3.0084641 -1.4009243 -0.52071774 48 3 1.6812914e+09
3.3910618 -2.4006438 -1.1031442 12 0 1.6812914e+09
2.9769068 -1.3819157 -0.7485159 46 1 1.6812914e+09
3.4402966 -2.4400487 0.96414238 7 14 1.6812914e+09
3.3127909 -1.5379939 0.96801454 52 15 1.6812914e+09
3.3801031 -2.3973336 0.64933312 2 12 1.6812914e+09
3.3693912 -1.5726973 0.71536779 3 13 1.6812914e+09
7.7700095 -5.515666 0.83059424 8 10 1.6812914e+09
3.3770397 -1.5826769 0.45301375 2 11 1.6812914e+09
9.3307018 -6.6288805 0.19917557 1 8 1.6812914e+09
3.3757548 -1.5856488 0.19364302 2 9 1.6812914e+09
3.0588408 -2.1733079 -0.19546939 45 6 1.6812914e+09
3.0827816 -1.449779 -0.058858238 55 7 1.6812914e+09
3.0171149 -2.1460044 -0.4496671 45 4 1.6812914e+09
3.0446041 -1.4319006 -0.29073688 52 5 1.6812914e+09
2.9789121 -2.1219244 -0.70282072 45 2 1.6812914e+09
3.0080278 -1.4135114 -0.52150083 48 3 1.6812914e+09
3.398385 -2.4236903 -1.1083171 12 0 1.6812914e+09
2.9786875 -1.3953896 -0.75020045 47 1 1.6812914e+09
3.4238319 -2.4463742 0.96189624 8 14 1.6812914e+09
3.3117788 -1.5515921 0.96930695 49 15 1.6812914e+09
3.3817575 -2.4163001 0.65128428 2 12 1.6812914e+09
3.3772101 -1.5907069 0.71822739 3 13 1.6812914e+09
7.7264023 -5.5253663 0.82797956 9 10 1.6812914e+09
3.3692503 -1.5933973 0.45270953 2 11 1.6812914e+09
9.3237648 -6.6730509 0.19952463 1 8 1.6812914e+09
3.3860004 -1.6048887 0.19455892 2 9 1.6812914e+09
3.0593536 -2.1897881 -0.1959945 43 6 1.6812914e+09
3.0844812 -1.4637369 -0.05898913 53 7 1.6812914e+09
3.0156548 -2.1608617 -0.45057982 45 4 1.6812914e+09
3.0418389 -1.4435842 -0.29095435 50 5 1.6812914e+09
2.9814537 -2.1394689 -0.70520157 45 2 1.6812914e+09
3.0075405 -1.4261125 -0.52228385 48 3 1.6812914e+09
3.3918648 -2.4369483 -1.1089638 12 0 1.6812914e+09
2.9804101 -1.4088928 -0.75188506 47 1 1.6812914e+09
3.3875992 -2.4383748 0.95403486 8 14 1.6812914e+09
3.3150814 -1.5672605 0.97189182 53 15 1.6812914e+09
3.3733025 -2.4280899 0.65128428 2 12 1.6812914e+09
3.3694193 -1.6014353 0.71775079 3 13 1.6812914e+09
7.6929255 -5.5421104 0.82645434 9 10 1.6812914e+09
3.3748715 -1.6104779 0.4542307 2 11 1.6812914e+09
9.3389339 -6.7333374 0.20035361 1 8 1.6812914e+09
9.3162508 -4.4466925 0.53919119 4 9 1.6812914e+09
3.0597885 -2.2062984 -0.1965196 43 6 1.6812914e+09
3.0838649 -1.4766479 -0.059076395 54 7 1.6812914e+09
3.0181501 -2.1786418 -0.45210102 45 4 1.6812914e+09
3.0435243 -1.4574112 -0.29160672 50 5 1.6812914e+09
2.9839087 -2.1570568 -0.70758241 45 2 1.6812914e+09
3.0092306 -1.4397898 -0.52345842 47 3 1.6812914e+09
3.393116 -2.4558566 -1.1121969 16 0 1.6812914e+09
2.9776742 -1.4203334 -0.75244659 47 1 1.6812914e+09
3.373152 -2.4458921 0.95235026 8 14 1.6812914e+09
3.316133 -1.5819339 0.9738304 53 15 1.6812914e+09
3.3727999 -2.4456515 0.65284514 2 12 1.6812914e+09
3.3660223 -1.6142454 0.71822739 3 13 1.6812914e+09
7.673533 -5.5689297 0.82645434 11 10 1.6812914e+09
3.3714664 -1.6233225 0.45453495 2 11 1.6812914e+09
9.3396397 -6.7835264 0.20087717 1 8 1.6812914e+09
9.2984219 -4.4781027 0.53906035 9 9 1.6812914e+09
3.0581264 -2.22137 -0.19691344 42 6 1.6812914e+09
3.0784318 -1.4879408 -0.059076395 50 7 1.6812914e+09
3.0165455 -2.1935446 -0.45301375 43 4 1.6812914e+09
3.0448935 -1.4717989 -0.29225907 50 5 1.6812914e+09
2.9803276 -2.1703508 -0.70853478 45 2 1.6812914e+09
3.0086365 -1.4524258 -0.52424139 47 3 1.6812914e+09
3.3840921 -2.4682767 -1.1121969 15 0 1.6812914e+09
2.9812341 -1.4354526 -0.75469267 47 1 1.6812914e+09
3.3724606 -2.463403 0.9545964 9 14 1.6812914e+09
3.3171232 -1.5966336 0.97576898 53 15 1.6812914e+09
3.3762031 -2.4661539 0.65518647 2 12 1.6812914e+09
3.3714199 -1.6313163 0.72061038 3 13 1.6812914e+09
7.6470399 -5.5926051 0.82580066 11 10 1.6812914e+09
3.3724792 -1.6383257 0.45544767 2 11 1.6812914e+09
9.3268166 -6.8265724 0.20113897 1 8 1.6812914e+09
3.3754599 -1.6441176 0.19495143 2 9 1.6812914e+09
3.0600331 -2.2399411 -0.1975698 42 6 1.6812914e+09
3.082212 -1.5030479 -0.059250917 52 7 1.6812914e+09
3.016489 -2.2104566 -0.4542307 43 4 1.6812914e+09
3.0442173 -1.4845958 -0.292694 49 5 1.6812914e+09
2.9826243 -2.188004 -0.71091557 43 2 1.6812914e+09
3.0057697 -1.4639975 -0.52463293 46 3 1.6812914e+09
3.3735101 -2.4786437 -1.1115503 15 0 1.6812914e+09
2.9805908 -1.4479731 -0.75581574 47 1 1.6812914e+09
3.363409 -2.4757466 0.9545964 9 14 1.6812914e+09
3.3155963 -1.6108861 0.97706145 49 15 1.6812914e+09
3.3830462 -2.4902291 0.65830827 2 12 1.6812914e+09
3.3720376 -1.646885 0.72204012 3 13 1.6812914e+09
7.6334867 -5.6236978 0.82645434 1 10 1.6812914e+09
3.3645108 -1.6489986 0.45514345 2 11 1.6812914e+09
9.3170118 -6.8694735 0.20144439 1 8 1.6812914e+09
3.3809104 -1.6613818 0.19560564 2 9 1.6812914e+09
3.0582218 -2.2550569 -0.19796364 43 6 1.6812914e+09
3.0836797 -1.5170991 -0.059381809 50 7 1.6812914e+09
3.0127463 -2.223922 -0.4548392 43 4 1.6812914e+09
3.0412529 -1.4963095 -0.29291144 52 5 1.6812914e+09
2.978915 -2.2013206 -0.71186787 43 2 1.6812914e+09
3.0050762 -1.4766524 -0.52541602 46 3 1.6812914e+09
3.3628974 -2.4889672 -1.1109037 14 0 1.6812914e+09
2.9820855 -1.4615759 -0.75750035 47 1 1.6812914e+09
3.3590937 -2.4897897 0.95571953 11 14 1.6812914e+09
3.3145764 -1.6239917 0.9783538 53 15 1.6812914e+09
3.3727863 -2.4999628 0.65791804 3 12 1.6812914e+09
3.3665578 -1.6580579 0.72204012 3 13 1.6812914e+09
7.6298065 -5.6621852 0.82819742 7 10 1.6812914e+09
3.3631856 -1.6629273 0.4557519 2 11 1.6812914e+09
9.3363209 -6.9316282 0.20236063 1 8 1.6812914e+09
3.3753824 -1.6725843 0.19560564 2 9 1.6812914e+09
3.060746 -2.2726319 -0.19862002 43 6 1.6812914e+09
3.0806057 -1.5289624 -0.05942544 50 7 1.6812914e+09
3.0173001 -2.2427878 -0.45666462 43 4 1.6812914e+09
3.0452044 -1.5108019 -0.29378125 47 5 1.6812914e+09
2.9810529 -2.2190375 -0.71424872 43 2 1.6812914e+09
3.0043309 -1.4893203 -0.52619898 47 3 1.6812914e+09
3.3735433 -2.5151329 -1.1173699 11 0 1.6812914e+09
2.979408 -1.4725332 -0.75806189 47 1 1.6812914e+09
3.3562362 -2.5058746 0.95740402 11 14 1.6812914e+09
3.3218856 -1.6419562 0.98223108 53 15 1.6812914e+09
3.3917327 -2.5324156 0.66338122 3 12 1.6812914e+09
3.3783426 -1.6785135 0.72585291 3 13 1.6812914e+09
3.3921304 -2.5336428 0.36736143 2 10 1.6812914e+09
3.361804 -1.6768667 0.4563604 2 11 1.6812914e+09
9.338089 -6.9836411 0.20292784 1 8 1.6812914e+09
3.3672888 -1.6832427 0.19547479 3 9 1.6812914e+09
3.0567911 -2.2862945 -0.19888256 43 6 1.6812914e+09
3.0819595 -1.5430546 -0.059556331 52 7 1.6812914e+09
3.0173953 -2.259259 -0.45788157 43 4 1.6812914e+09
3.0396464 -1.5219531 -0.29378125 47 5 1.6812914e+09
2.9791772 -2.2338495 -0.7156772 43 2 1.6812914e+09
3.0057435 -1.5031023 -0.52737355 46 3 1.6812914e+09
3.3917692 -2.5472071 -1.1264228 9 0 1.6812914e+09
2.980535 -1.4866962 -0.75974643 47 1 1.6812914e+09
3.3455224 -2.5161099 0.95684248 26 14 1.6812914e+09
3.313971 -1.6524668 0.98158485 52 15 1.6812914e+09
3.4183841 -2.5709705 0.67040527 9 12 1.6812914e+09
3.3856354 -1.6968778 0.72871244 3 13 1.6812914e+09
3.4106712 -2.5670373 0.3704119 9 10 1.6812914e+09
3.3714561 -1.6963795 0.45849007 2 11 1.6812914e+09
3.3902326 -2.5535038 0.073474631 2 8 1.6812914e+09
3.3789399 -1.7045472 0.19652151 2 9 1.6812914e+09
3.0603495 -2.3065038 -0.19967023 42 6 1.6812914e+09
3.0787873 -1.5549272 -0.059599966 50 7 1.6812914e+09
3.0170152 -2.2762847 -0.45909855 45 4 1.6812914e+09
3.0432136 -1.5370334 -0.29465106 47 5 1.6812914e+09
2.9811504 -2.2516356 -0.71805805 43 2 1.6812914e+09
3.0026846 -1.5146942 -0.5277651 47 3 1.6812914e+09
3.4136624 -2.5823543 -1.1367687 8 0 1.6812914e+09
2.9796824 -1.499275 -0.76086944 47 1 1.6812914e+09
3.3382187 -2.5298269 0.95740402 50 14 1.6812914e+09
3.3165271 -1.6689335 0.98416966 50 15 1.6812914e+09
3.3676219 -2.5521443 0.66221052 26 12 1.6812914e+09
3.3728189 -1.7059602 0.72728264 4 13 1.6812914e+09
3.3659775 -2.5518298 0.36648989 12 10 1.6812914e+09
3.3740714 -1.7132082 0.45970702 3 11 1.6812914e+09
3.3753262 -2.5607874 0.073343731 9 8 1.6812914e+09
3.3841014 -1.7219791 0.19717571 2 9 1.6812914e+09
3.0562551 -2.3201933 -0.19993277 42 6 1.6812914e+09
3.0777981 -1.567928 -0.059687223 50 7 1.6812914e+09
3.0189259 -2.2943141 -0.46061975 43 4 1.6812914e+09
3.0400505 -1.5487744 -0.29486853 47 5 1.6812914e+09
2.9787343 -2.2670085 -0.71948653 43 2 1.6812914e+09
3.0081229 -1.5312752 -0.52972269 46 3 1.6812914e+09
3.4084682 -2.5971835 -1.138062 6 0 1.6812914e+09
2.9831266 -1.5140651 -0.76311564 47 1 1.6812914e+09
3.3313036 -2.5429432 0.95796555 53 14 1.6812914e+09
3.3128357 -1.6815904 0.9848159 50 15 1.6812914e+09
3.3567305 -2.5623848 0.66182029 47 12 1.6812914e+09
3.3755934 -1.7221737 0.72918904 4 13 1.6812914e+09
3.3629856 -2.5681007 0.36714357 75 10 1.6812914e+09
3.3680704 -1.7249753 0.45970702 3 11 1.6812914e+09
3.3703377 -2.5755911 0.073431 97 8 1.6812914e+09
3.3802927 -1.734919 0.19730654 2 9 1.6812914e+09
3.0600324 -2.3399518 -0.20072043 43 6 1.6812914e+09
3.0812056 -1.5832198 -0.059861749 50 7 1.6812914e+09
3.0187776 -2.3108747 -0.4618367 43 4 1.6812914e+09
3.0390594 -1.5616474 -0.29530343 47 5 1.6812914e+09
2.9805381 -2.2848628 -0.72186738 42 2 1.6812914e+09
3.0049574 -1.5428908 -0.53011417 46 3 1.6812914e+09
3.3898058 -2.6017096 -1.1348288 9 0 1.6812914e+09
2.9821634 -1.5266831 -0.76423866 47 1 1.6812914e+09
3.3185456 -2.5515845 0.95684248 46 14 1.6812914e+09
3.3112481 -1.69534 0.98610824 50 15 1.6812914e+09
3.3321097 -2.5620384 0.6586985 46 12 1.6812914e+09
3.4154158 -1.7574718 0.73919749 6 13 1.6812914e+09
3.3382134 -2.5676706 0.36540046 42 10 1.6812914e+09
4.9044809 -2.5300534 0.67237103 1 11 1.6812914e+09
3.3415251 -2.5720851 0.072994687 79 8 1.6812914e+09
3.3808715 -1.7501428 0.19769907 2 9 1.6812914e+09
3.0597546 -2.3567162 -0.20124553 42 6 1.6812914e+09
3.0845435 -1.5985545 -0.060036272 52 7 1.6812914e+09
3.0146217 -2.3244302 -0.4624452 43 4 1.6812914e+09
3.0402277 -1.5756754 -0.29595581 47 5 1.6812914e+09
2.9807134 -2.300736 -0.72377205 42 2 1.6812914e+09
3.0086019 -1.5573756 -0.53168029 48 3 1.6812914e+09
3.3501439 -2.5898817 -1.1244828 16 0 1.6812914e+09
2.9789822 -1.5381982 -0.76480019 47 1 1.6812914e+09
3.3177688 -2.5685434 0.95908862 45 14 1.6812914e+09
3.3141973 -1.7107313 0.98869306 50 15 1.6812914e+09
3.3157878 -2.567024 0.65713763 43 12 1.6812914e+09
4.8482485 -2.5129366 1.0537496 1 13 1.6812914e+09
3.3193896 -2.5716767 0.36431101 43 10 1.6812914e+09
4.7546759 -2.4739745 0.65289956 1 11 1.6812914e+09
3.3152013 -2.5693634 0.072602004 70 8 1.6812914e+09
3.3772638 -1.7624971 0.1978299 2 9 1.6812914e+09
3.0598111 -2.372973 -0.20177063 42 6 1.6812914e+09
3.0789449 -1.6093118 -0.060036272 53 7 1.6812914e+09
3.0206125 -2.3450725 -0.46457487 43 4 1.6812914e+09
3.0438213 -1.5903499 -0.29682562 47 5 1.6812914e+09
2.9784749 -2.3156486 -0.72520053 42 2 1.6812914e+09
3.0009565 -1.5667282 -0.53128874 46 3 1.6812914e+09
3.3334641 -2.5956228 -1.1218964 47 0 1.6812914e+09
2.9803522 -1.5514339 -0.76648474 47 1 1.6812914e+09
3.3222263 -2.5906012 0.96301931 45 14 1.6812914e+09
3.3167796 -1.7267395 0.99127787 50 15 1.6812914e+09
3.3184867 -2.5876982 0.65947896 42 12 1.6812914e+09
4.8089848 -2.5139537 1.0470773 1 13 1.6812914e+09
3.3206587 -2.5903335 0.36540046 43 10 1.6812914e+09
4.7086411 -2.4709866 0.64772749 1 11 1.6812914e+09
3.3121221 -2.5855372 0.072732903 43 8 1.6812914e+09
3.3887763 -1.7835561 0.19887663 2 9 1.6812914e+09
3.0593765 -2.3897903 -0.20229574 42 6 1.6812914e+09
3.0777342 -1.622375 -0.060123537 52 7 1.6812914e+09
3.0163167 -2.3586612 -0.46518338 42 4 1.6812914e+09
3.0379722 -1.6014954 -0.29682562 48 5 1.6812914e+09
2.9761682 -2.3305733 -0.72662902 42 2 1.6812914e+09
3.004215 -1.5817837 -0.5328548 47 3 1.6812914e+09
3.3072867 -2.593823 -1.1160767 38 0 1.6812914e+09
2.9768045 -1.5634769 -0.76704627 47 1 1.6812914e+09
3.3208239 -2.6082041 0.96526545 46 14 1.6812914e+09
3.3150115 -1.7405468 0.99257034 50 15 1.6812914e+09
3.3191404 -2.6068962 0.66143 42 12 1.6812914e+09
4.6959305 -2.4758759 1.0242008 1 13 1.6812914e+09
3.3228867 -2.6117256 0.3667078 43 10 1.6812914e+09
4.697793 -2.486249 0.64742327 1 11 1.6812914e+09
3.3124435 -2.6053896 0.072951056 45 8 1.6812914e+09
3.3800101 -1.7947963 0.19874579 2 9 1.6812914e+09
3.0604024 -2.4087119 -0.20295212 42 6 1.6812914e+09
3.0786781 -1.6366196 -0.060254429 52 7 1.6812914e+09
3.0173936 -2.3773835 -0.46670455 43 4 1.6812914e+09
3.0433669 -1.617921 -0.2979129 48 5 1.6812914e+09
2.9795725 -2.3500724 -0.72948605 42 2 1.6812914e+09
3.0074048 -1.5968806 -0.53442085 48 3 1.6812914e+09
3.3038955 -2.6098444 -1.1180165 42 0 1.6812914e+09
2.9777915 -1.5772702 -0.76873088 47 1 1.6812914e+09
3.3169711 -2.6248953 0.96695 45 14 1.6812914e+09
3.3171518 -1.7571967 0.99515516 49 15 1.6812914e+09
3.3173068 -2.6251769 0.66299099 43 12 1.6812914e+09
4.6174579 -2.45625 1.0089499 1 13 1.6812914e+09
3.3215578 -2.6294951 0.36757934 42 10 1.6812914e+09
4.7066069 -2.5119641 0.64985716 1 11 1.6812914e+09
3.317039 -2.6278071 0.07325647 43 8 1.6812914e+09
3.3781292 -1.8089356 0.19900747 2 9 1.6812914e+09
3.06371 -2.4286904 -0.20373976 42 6 1.6812914e+09
3.0817649 -1.6520687 -0.060428951 52 7 1.6812914e+09
3.0187917 -2.3956184 -0.46822575 42 4 1.6812914e+09
3.0398972 -1.6297084 -0.29813036 47 5 1.6812914e+09
2.9809561 -2.3680959 -0.73186684 43 2 1.6812914e+09
3.0061688 -1.6096939 -0.53520393 47 3 1.6812914e+09
3.3004332 -2.6258745 -1.1199565 42 0 1.6812914e+09
2.9744182 -1.5887998 -0.76929241 47 1 1.6812914e+09
3.3234854 -2.6480312 0.97144222 56 14 1.6812914e+09
3.3155699 -1.7704569 0.99644756 50 15 1.6812914e+09
3.325959 -2.6500192 0.66650301 41 12 1.6812914e+09
4.5119128 -2.4194465 0.98750305 1 13 1.6812914e+09
3.3162522 -2.6441803 0.36801511 42 10 1.6812914e+09
4.7721357 -2.5682981 0.66020137 1 11 1.6812914e+09
3.3102608 -2.640352 0.073300101 41 8 1.6812914e+09
3.3809056 -1.8248609 0.19953083 2 9 1.6812914e+09
3.061491 -2.4435115 -0.20413359 41 6 1.6812914e+09
3.0803802 -1.6651876 -0.060516216 52 7 1.6812914e+09
3.0185826 -2.4118149 -0.46944273 43 4 1.6812914e+09
3.041054 -1.6433234 -0.29878271 48 5 1.6812914e+09
2.9822497 -2.3861578 -0.73424768 42 2 1.6812914e+09
3.0092289 -1.6248585 -0.53676999 47 3 1.6812914e+09
3.2968988 -2.641912 -1.1218964 42 0 1.6812914e+09
2.9777195 -1.6032624 -0.7715385 47 1 1.6812914e+09
3.3161216 -2.6611416 0.97200376 47 14 1.6812914e+09
3.3178811 -1.7865891 0.99903238 49 15 1.6812914e+09
3.3186138 -2.6631591 0.66689324 45 12 1.6812914e+09
4.4580846 -2.4107087 0.97749466 1 13 1.6812914e+09
3.3249393 -2.6692019 0.36997613 39 10 1.6812914e+09
4.8045993 -2.6073935 0.66598195 1 11 1.6812914e+09
3.316608 -2.6644208 0.073649146 39 8 1.6812914e+09
3.3810976 -1.840224 0.19992335 2 9 1.6812914e+09
3.0587785 -2.4588785 -0.20452742 41 6 1.6812914e+09
3.0792341 -1.6777796 -0.060603477 50 7 1.6812914e+09
3.0178754 -2.4285636 -0.47065967 42 4 1.6812914e+09
3.0418644 -1.6574948 -0.29943508 49 5 1.6812914e+09
2.9796333 -2.4011757 -0.73567617 42 2 1.6812914e+09
3.0078788 -1.6377083 -0.53755301 47 3 1.6812914e+09
3.297514 -2.6604161 -1.1251295 42 0 1.6812914e+09
2.9785326 -1.6171252 -0.7732231 47 1 1.6812914e+09
3.3181763 -2.6818938 0.97537285 45 14 1.6812914e+09
3.3179955 -1.801609 1.000971 49 15 1.6812914e+09
3.3150568 -2.6793861 0.66806382 45 12 1.6812914e+09
4.4302406 -2.4156992 0.97320527 1 13 1.6812914e+09
3.3233457 -2.6870582 0.3708477 45 10 1.6812914e+09
4.8477359 -2.6526933 0.6732837 7 11 1.6812914e+09
3.315058 -2.6822743 0.073823676 41 8 1.6812914e+09
3.3746536 -1.852015 0.19992335 2 9 1.6812914e+09
3.0637538 -2.4805431 -0.20544635 42 6 1.6812914e+09
3.0799358 -1.6921202 -0.060734373 50 7 1.6812914e+09
3.015161 -2.443773 -0.47157243 43 4 1.6812914e+09
3.0382447 -1.6692992 -0.29965255 47 5 1.6812914e+09
2.976948 -2.4162045 -0.73710465 42 2 1.6812914e+09
3.008642 -1.6517539 -0.53872752 47 3 1.6812914e+09
3.3069427 -2.6871469 -1.1315957 42 0 1.6812914e+09
2.9750082 -1.6286793 -0.77378464 47 1 1.6812914e+09
3.318238 -2.7011538 0.97818059 45 14 1.6812914e+09
3.3159261 -1.8154943 1.0022633 47 15 1.6812914e+09
3.3152561 -2.69874 0.67001504 45 12 1.6812914e+09
4.3895073 -2.4134429 0.96605641 1 13 1.6812914e+09
3.3178067 -2.7017891 0.37128344 45 10 1.6812914e+09
4.8406205 -2.6707959 0.67358792 1 11 1.6812914e+09
3.311486 -2.6985691 0.073954567 41 8 1.6812914e+09
3.3703537 -1.8649896 0.20005418 2 9 1.6812914e+09
3.062813 -2.4975367 -0.20597145 42 6 1.6812914e+09
3.080277 -1.7070236 -0.060865264 50 7 1.6812914e+09
3.0219851 -2.4668429 -0.47400633 43 4 1.6812914e+09
3.0386457 -1.6840369 -0.30030489 46 5 1.6812914e+09
2.9798925 -2.4359062 -0.73996168 42 2 1.6812914e+09
3.0136669 -1.6682106 -0.54068512 47 3 1.6812914e+09
3.3026755 -2.7038412 -1.1335355 43 0 1.6812914e+09
2.975421 -1.6430964 -0.77546918 47 1 1.6812914e+09
3.3163221 -2.7189009 0.98042661 45 14 1.6812914e+09
3.3159158 -1.8305517 1.004202 47 15 1.6812914e+09
3.3115423 -2.7149949 0.67118561 43 12 1.6812914e+09
4.3681707 -2.4216228 0.96319675 1 13 1.6812914e+09
3.3194306 -2.7234139 0.37259081 43 10 1.6812914e+09
4.852963 -2.6997218 0.67663038 1 11 1.6812914e+09
3.3112295 -2.7186229 0.074172728 43 8 1.6812914e+09
3.3678584 -1.8797582 0.20031586 2 9 1.6812914e+09
3.0594234 -2.5135026 -0.20636527 42 6 1.6812914e+09
3.0808506 -1.7214148 -0.060996156 48 7 1.6812914e+09
3.0167549 -2.4810565 -0.4746148 42 4 1.6812914e+09
3.0371006 -1.6970576 -0.30073982 46 5 1.6812914e+09
2.9808414 -2.4540966 -0.74234247 42 2 1.6812914e+09
3.0078254 -1.67872 -0.54068512 47 3 1.6812914e+09
3.3137062 -2.7322612 -1.1406485 42 0 1.6812914e+09
2.9739277 -1.6558368 -0.77659225 47 1 1.6812914e+09
3.3194776 -2.7419028 0.9843573 45 14 1.6812914e+09
3.3176303 -1.8473821 1.0067868 47 15 1.6812914e+09
3.3167946 -2.7397008 0.67430741 43 12 1.6812914e+09
4.5435739 -2.5404544 1.0041839 12 13 1.6812914e+09
3.3214195 -2.7445078 0.37389815 43 10 1.6812914e+09
3.3798075 -1.8972685 0.47096393 2 11 1.6812914e+09
3.3074961 -2.7349453 0.074303612 45 8 1.6812914e+09
3.3786941 -1.9012772 0.20136258 2 9 1.6812914e+09
3.0583224 -2.5305362 -0.20689037 42 6 1.6812914e+09
3.0791819 -1.7346065 -0.061083421 49 7 1.6812914e+09
3.0157173 -2.4979067 -0.47583175 43 4 1.6812914e+09
3.039844 -1.7125269 -0.30160964 46 5 1.6812914e+09
2.9760339 -2.4676216 -0.74329484 42 2 1.6812914e+09
3.004101 -1.6904173 -0.54107666 47 3 1.6812914e+09
3.3060055 -2.7453547 -1.1412951 42 0 1.6812914e+09
2.9787593 -1.6721556 -0.77939993 48 1 1.6812914e+09
3.3178566 -2.7591293 0.9866035 43 14 1.6812914e+09
3.3199158 -1.8630908 1.0093716 47 15 1.6812914e+09
3.3361616 -2.77438 0.68016088 9 12 1.6812914e+09
4.5073156 -2.5398698 0.9979881 11 13 1.6812914e+09
3.3175602 -2.7608664 0.37455183 39 10 1.6812914e+09
3.358037 -1.9005171 0.46883425 1 11 1.6812914e+09
3.3118522 -2.7570992 0.074609034 43 8 1.6812914e+09
3.3615046 -1.9063259 0.20070837 2 9 1.6812914e+09
3.0633368 -2.5518553 -0.20780931 42 6 1.6812914e+09
3.0839837 -1.7515023 -0.06130157 49 7 1.6812914e+09
3.0207527 -2.5190239 -0.47796145 43 4 1.6812914e+09
3.0428181 -1.7275051 -0.30247945 47 5 1.6812914e+09
2.9787011 -2.4874384 -0.74615186 42 2 1.6812914e+09
3.0089283 -1.7069707 -0.54303426 47 3 1.6812914e+09
3.309365 -2.7677281 -1.1458215 42 0 1.6812914e+09
2.9753196 -1.6832211 -0.77996141 46 1 1.6812914e+09
3.3194072 -2.7800837 0.98997259 43 14 1.6812914e+09
3.3197021 -1.8782281 1.0113102 47 15 1.6812914e+09
3.3661985 -2.8193202 0.68835551 9 12 1.6812914e+09
4.464263 -2.5362222 0.99036258 11 13 1.6812914e+09
9.2663565 -7.7676401 1.0548024 4 10 1.6812914e+09
3.39236 -1.9355437 0.4746148 2 11 1.6812914e+09
3.3117816 -2.7766762 0.074827187 8 8 1.6812914e+09
3.3786869 -1.9316504 0.20214762 2 9 1.6812914e+09
3.0620582 -2.5689545 -0.20833442 42 6 1.6812914e+09
3.0843637 -1.7659745 -0.06143247 48 7 1.6812914e+09
3.0214384 -2.5375361 -0.47948265 43 4 1.6812914e+09
3.0407917 -1.7411155 -0.30291435 47 5 1.6812914e+09
2.9756327 -2.5025623 -0.74758035 42 2 1.6812914e+09
3.0050964 -1.7186862 -0.5434258 47 3 1.6812914e+09
3.3089161 -2.7870457 -1.1490546 42 0 1.6812914e+09
2.9733655 -1.6965238 -0.78108448 45 1 1.6812914e+09
3.3189907 -2.799511 0.99278033 43 14 1.6812914e+09
3.3215227 -1.8945806 1.013895 48 15 1.6812914e+09
3.4129446 -2.8788397 0.70006227 1 12 1.6812914e+09
4.4276843 -2.5359585 0.98416692 8 13 1.6812914e+09
9.2587519 -7.8192291 1.0571992 7 10 1.6812914e+09
3.3791261 -1.9436694 0.47370207 2 11 1.6812914e+09
9.0741491 -7.6687198 0.20676738 1 8 1.6812914e+09
3.3694203 -1.9427764 0.20201679 2 9 1.6812914e+09
3.0621519 -2.5882223 -0.2089908 41 6 1.6812914e+09
3.0803471 -1.7779771 -0.0614761 47 7 1.6812914e+09
3.0196924 -2.5550079 -0.4806996 42 4 1.6812914e+09
3.0390129 -1.7542037 -0.30334926 46 5 1.6812914e+09
2.9818552 -2.5256302 -0.75138968 42 2 1.6812914e+09
3.005501 -1.7328569 -0.54460031 47 3 1.6812914e+09
3.3378279 -2.8314004 -1.1626338 9 0 1.6812914e+09
2.9737654 -1.7105278 -0.78276902 46 1 1.6812914e+09
3.3179862 -2.8195479 0.99558789 43 14 1.6812914e+09
3.3166511 -1.9079434 1.0145413 47 15 1.6812914e+09
3.4192996 -2.9057274 0.70357424 1 12 1.6812914e+09
4.3949714 -2.5386884 0.97892433 8 13 1.6812914e+09
9.2712345 -7.8853898 1.0617748 7 10 1.6812914e+09
3.365536 -1.9523137 0.47278938 2 11 1.6812914e+09
9.085391 -7.7327557 0.20763999 1 8 1.6812914e+09
3.3798976 -1.9645426 0.2030635 2 9 1.6812914e+09
3.0645008 -2.6086097 -0.20977844 41 6 1.6812914e+09
3.0806081 -1.7924815 -0.061606992 47 7 1.6812914e+09
3.0183074 -2.571974 -0.48191655 42 4 1.6812914e+09
3.0371795 -1.7673006 -0.30378416 46 5 1.6812914e+09
2.9800429 -2.542918 -0.75329429 42 2 1.6812914e+09
3.0076745 -1.7488143 -0.54616642 47 3 1.6812914e+09
nan nan nan 0 0 1.6812914e+09
2.9762127 -1.7257742 -0.78501517 46 1 1.6812914e+09
3.3173749 -2.839036 0.9983955 43 14 1.6812914e+09
3.3204243 -1.925554 1.0177723 49 15 1.6812914e+09
3.382879 -2.8951564 0.69811112 1 12 1.6812914e+09
4.3521318 -2.534286 0.97129887 7 13 1.6812914e+09
9.2663488 -7.93715 1.0643895 1 10 1.6812914e+09
3.3715618 -1.9715501 0.4746148 2 11 1.6812914e+09
9.0849094 -7.7872014 0.20825084 1 8 1.6812914e+09
3.3816414 -1.981367 0.20358686 2 9 1.6812914e+09
3.0629554 -2.6257937 -0.21030356 41 6 1.6812914e+09
3.0786479 -1.8057477 -0.061694253 47 7 1.6812914e+09
3.0187228 -2.5905781 -0.48343778 42 4 1.6812914e+09
3.0395913 -1.7829207 -0.30465397 46 5 1.6812914e+09
2.9767306 -2.5581059 -0.75472277 42 2 1.6812914e+09
3.0100789 -1.7642854 -0.54773247 47 3 1.6812914e+09
4.3720684 -3.7622533 -1.5350904 3 0 1.6812914e+09
2.9722755 -1.7373792 -0.7855767 46 1 1.6812914e+09
3.3166683 -2.8585548 1.0012032 43 14 1.6812914e+09
3.3178554 -1.9395651 1.0190647 48 15 1.6812914e+09
3.3839717 -2.9166248 0.70045245 2 12 1.6812914e+09
4.3263187 -2.5395393 0.96748608 7 13 1.6812914e+09
9.2612123 -7.9889712 1.0670042 7 10 1.6812914e+09
3.3778417 -1.990263 0.47644025 2 11 1.6812914e+09
9.1087542 -7.8629742 0.20942888 1 8 1.6812914e+09
9.3333092 -5.5030451 0.56601334 7 9 1.6812914e+09
3.059438 -2.6413662 -0.21069737 41 6 1.6812914e+09
3.0787859 -1.8202914 -0.061825149 47 7 1.6812914e+09
3.0152919 -2.6059699 -0.4843505 42 4 1.6812914e+09
3.0397856 -1.7973143 -0.30530638 46 5 1.6812914e+09
2.9775078 -2.5759962 -0.75710362 41 2 1.6812914e+09
3.0042117 -1.7742575 -0.54773247 46 3 1.6812914e+09
4.3534355 -3.7727451 -1.5331506 3 0 1.6812914e+09
2.9724946 -1.7514454 -0.78726125 46 1 1.6812914e+09
3.318207 -2.8791211 1.0045723 42 14 1.6812914e+09
3.3197348 -1.9554496 1.0216495 48 15 1.6812914e+09
3.3891971 -2.9407828 0.70357424 2 12 1.6812914e+09
4.2882848 -2.5364082 0.96081382 7 13 1.6812914e+09
9.2689877 -8.0522881 1.0711441 1 10 1.6812914e+09
3.3772786 -2.0058355 0.47735298 2 11 1.6812914e+09
9.1203594 -7.9259348 0.21030149 8 8 1.6812914e+09
9.278512 -5.5123034 0.56378907 21 9 1.6812914e+09
3.0581968 -2.6580515 -0.21122248 40 6 1.6812914e+09
3.0810084 -1.836135 -0.061999671 46 7 1.6812914e+09
3.0197332 -2.6273618 -0.48648018 42 4 1.6812914e+09
3.0380914 -1.8099284 -0.30574125 46 5 1.6812914e+09
2.9758966 -2.5928259 -0.75900829 41 2 1.6812914e+09
3.0022466 -1.7872536 -0.5485155 46 3 1.6812914e+09
4.3093166 -3.760915 -1.5221578 4 0 1.6812914e+09
2.9729593 -1.7650154 -0.78894585 47 1 1.6812914e+09
3.3154724 -2.8971012 1.0068185 42 14 1.6812914e+09
3.319123 -1.9707171 1.0235881 47 15 1.6812914e+09
3.3770528 -2.9509699 0.70318407 2 12 1.6812914e+09
4.2604227 -2.5400684 0.95652443 6 13 1.6812914e+09
9.2647276 -8.1026583 1.0737587 1 10 1.6812914e+09
3.3809092 -2.0239725 0.47887418 2 11 1.6812914e+09
9.1678658 -8.0235806 0.21204673 6 8 1.6812914e+09
9.2463589 -5.5369678 0.56300402 15 9 1.6812914e+09
3.0620444 -2.6802261 -0.21214141 41 6 1.6812914e+09
3.0810134 -1.8507317 -0.062130563 47 7 1.6812914e+09
3.0180056 -2.6444309 -0.48769712 41 4 1.6812914e+09
3.0399835 -1.8261704 -0.30661109 46 5 1.6812914e+09
2.976048 -2.6112955 -0.76138914 41 2 1.6812914e+09
3.0023465 -1.8015256 -0.54969007 46 3 1.6812914e+09
nan nan nan 0 0 1.6812914e+09
2.9727461 -1.7796454 -0.79063046 46 1 1.6812914e+09
3.3163085 -2.9183168 1.0101876 42 14 1.6812914e+09
3.320519 -1.9872419 1.026173 47 15 1.6812914e+09
3.3852625 -2.9790602 0.70708627 2 12 1.6812914e+09
4.2304831 -2.5423031 0.9517585 4 13 1.6812914e+09
9.2686005 -8.1662006 1.0776807 1 10 1.6812914e+09
3.3780756 -2.038321 0.47948265 2 11 1.6812914e+09
9.3014965 -8.2009697 0.21584262 8 8 1.6812914e+09
9.2452421 -5.5824256 0.56418157 13 9 1.6812914e+09
3.0596874 -2.6980388 -0.2126665 41 6 1.6812914e+09
3.0809541 -1.8653507 -0.062261455 47 7 1.6812914e+09
3.0120122 -2.6587608 -0.4883056 41 4 1.6812914e+09
3.0399871 -1.8406324 -0.30726346 46 5 1.6812914e+09
2.9761064 -2.629797 -0.76376992 41 2 1.6812914e+09
3.0023832 -1.8158199 -0.55086458 46 3 1.6812914e+09
nan nan nan 0 0 1.6812914e+09
2.9748659 -1.7950346 -0.79287654 46 1 1.6812914e+09
3.3165238 -2.9401529 1.0135567 42 14 1.6812914e+09
3.3194206 -2.0031347 1.0281116 46 15 1.6812914e+09
3.3780155 -2.9947255 0.70786673 2 12 1.6812914e+09
4.2127366 -2.552712 0.94985217 4 13 1.6812914e+09
9.2754288 -8.2299147 1.0818206 1 10 1.6812914e+09
3.3751833 -2.0526741 0.48009112 2 11 1.6812914e+09
9.3157978 -8.2715664 0.21684614 8 8 1.6812914e+09
9.2726297 -5.643198 0.56706005 12 9 1.6812914e+09
3.0595815 -2.7169952 -0.21332289 41 6 1.6812914e+09
3.0851009 -1.8825908 -0.062479611 47 7 1.6812914e+09
3.0175443 -2.6824534 -0.49073952 42 4 1.6812914e+09
3.0399265 -1.8551167 -0.30791581 46 5 1.6812914e+09
2.9760725 -2.6483314 -0.76615083 41 2 1.6812914e+09
3.0002465 -1.8288538 -0.55164766 46 3 1.6812914e+09
4.0209885 -3.5840099 -1.4329234 7 0 1.6812914e+09
2.9748309 -1.8091971 -0.79456115 46 1 1.6812914e+09
3.3140233 -2.9576261 1.0158029 42 14 1.6812914e+09
3.3168895 -2.0166354 1.0294039 46 15 1.6812914e+09
3.3901668 -3.0256505 0.71254945 2 12 1.6812914e+09
4.2063437 -2.5679445 0.95032871 4 13 1.6812914e+09
9.2707834 -8.2838173 1.0846533 1 10 1.6812914e+09
3.376466 -2.0696204 0.4813081 2 11 1.6812914e+09
9.3144045 -8.325738 0.21745698 8 8 1.6812914e+09
9.2538662 -5.6739163 0.56706005 19 9 1.6812914e+09
3.0579967 -2.7337849 -0.21384798 41 6 1.6812914e+09
3.0806415 -1.8946551 -0.062523246 46 7 1.6812914e+09
3.016026 -2.6990681 -0.4919565 41 4 1.6812914e+09
3.0422511 -1.870394 -0.30878565 46 5 1.6812914e+09
2.974118 -2.6652582 -0.76805544 41 2 1.6812914e+09
3.0022666 -1.8444746 -0.55321372 46 3 1.6812914e+09
3.9833009 -3.5754321 -1.4238708 7 0 1.6812914e+09
2.9771309 -1.8241318 -0.79680723 46 1 1.6812914e+09
3.3145466 -2.9789505 1.0191721 42 14 1.6812914e+09
3.3221946 -2.0357573 1.0332812 47 15 1.6812914e+09
3.3814204 -3.0391173 0.71293968 2 12 1.6812914e+09
4.203629 -2.5864644 0.9517585 4 13 1.6812914e+09
9.2691813 -8.3378363 1.0877037 20 10 1.6812914e+09
3.3671086 -2.0800924 0.48100385 2 11 1.6812914e+09
9.3298674 -8.3983431 0.21850412 8 8 1.6812914e+09
9.2361279 -5.7074957 0.56719089 1 9 1.6812914e+09
3.063273 -2.7578118 -0.21489818 41 6 1.6812914e+09
3.0803881 -1.9093398 -0.062654138 46 7 1.6812914e+09
3.0176418 -2.7195516 -0.49378195 42 4 1.6812914e+09
3.0396123 -1.8841506 -0.30922052 46 5 1.6812914e+09
2.9739027 -2.6838491 -0.77043635 41 2 1.6812914e+09
3.0000117 -1.8575375 -0.55399674 46 3 1.6812914e+09
3.9600503 -3.5795949 -1.4199909 6 0 1.6812914e+09
2.9745739 -1.8375868 -0.7979303 46 1 1.6812914e+09
3.3185723 -3.0035861 1.0236642 42 14 1.6812914e+09
3.3232932 -2.0524075 1.035866 46 15 1.6812914e+09
3.3890929 -3.0674796 0.71684188 2 12 1.6812914e+09
4.1966619 -2.6024139 0.9522351 4 13 1.6812914e+09
9.2662382 -8.3968439 1.0909721 19 10 1.6812914e+09
3.3640432 -2.0944512 0.48161235 3 11 1.6812914e+09
9.3212414 -8.4526339 0.2190277 8 8 1.6812914e+09
3.3885856 -2.114594 0.20751205 1 9 1.6812914e+09
3.0623875 -2.7774107 -0.21555458 41 6 1.6812914e+09
3.0843124 -1.9266887 -0.062872291 46 7 1.6812914e+09
3.0149999 -2.7372684 -0.49499893 42 4 1.6812914e+09
3.0435863 -1.9013332 -0.3103078 46 5 1.6812914e+09
2.9790404 -2.7074249 -0.77424562 41 2 1.6812914e+09
3.0060885 -1.8758248 -0.55634582 46 3 1.6812914e+09
3.9421754 -3.5885177 -1.4180511 6 0 1.6812914e+09
2.9743505 -1.8518131 -0.79961491 46 1 1.6812914e+09
3.3165388 -3.0239394 1.0264719 42 14 1.6812914e+09
3.3198516 -2.0671225 1.0371584 46 15 1.6812914e+09
3.3814754 -3.0832095 0.71762234 2 12 1.6812914e+09
4.2058339 -2.6294689 0.95652443 4 13 1.6812914e+09
9.2718201 -8.4610376 1.0951118 23 10 1.6812914e+09
3.3647571 -2.1120341 0.4828293 3 11 1.6812914e+09
9.0536013 -8.2676487 0.21339929 7 8 1.6812914e+09
3.3917582 -2.1330431 0.20816626 1 9 1.6812914e+09
3.0618877 -2.7965055 -0.21621095 41 6 1.6812914e+09
3.0818026 -1.9401013 -0.062959552 46 7 1.6812914e+09
3.0164106 -2.7578268 -0.49682435 41 4 1.6812914e+09
3.0453682 -1.9172426 -0.31117764 46 5 1.6812914e+09
2.9745252 -2.7232995 -0.7756741 40 2 1.6812914e+09
3.0033762 -1.8894542 -0.55712885 46 3 1.6812914e+09
3.9669969 -3.6365373 -1.4316303 3 0 1.6812914e+09
2.9740641 -1.86606 -0.80129945 46 1 1.6812914e+09
3.3203135 -3.0486844 1.030964 42 14 1.6812914e+09
3.3167105 -2.0812609 1.0384508 43 15 1.6812914e+09
3.4034216 -3.1250691 0.72464639 2 12 1.6812914e+09
4.1841645 -2.6362963 0.9536649 4 13 1.6812914e+09
9.1945572 -8.4495306 1.0894468 13 10 1.6812914e+09
3.3615611 -2.1264143 0.48343778 3 11 1.6812914e+09
8.9713364 -8.2501268 0.21213399 7 8 1.6812914e+09
3.3821816 -2.1435351 0.20803542 1 9 1.6812914e+09
3.063128 -2.8173213 -0.21699859 40 6 1.6812914e+09
3.0792363 -1.9535198 -0.063046813 46 7 1.6812914e+09
3.0195389 -2.7801096 -0.49895403 41 4 1.6812914e+09
3.0428665 -1.9305245 -0.31161255 46 5 1.6812914e+09
2.9776268 -2.7453165 -0.7790072 41 2 1.6812914e+09
3.0051105 -1.9052039 -0.5586949 46 3 1.6812914e+09
nan nan nan 0 0 1.6812914e+09
2.9737146 -1.8803281 -0.802984 46 1 1.6812914e+09
3.3185916 -3.0685287 1.0337718 41 14 1.6812914e+09
3.3196385 -2.099267 1.0416819 41 15 1.6812914e+09
3.3870547 -3.1318986 0.72347569 2 12 1.6812914e+09
4.1894484 -2.6600804 0.95700109 4 13 1.6812914e+09
9.2216635 -8.5340195 1.0962013 26 10 1.6812914e+09
3.360774 -2.1415431 0.4843505 3 11 1.6812914e+09
8.8911381 -8.2338295 0.21091232 7 8 1.6812914e+09
9.2871723 -5.9220023 0.57543385 2 9 1.6812914e+09
3.058768 -2.8330882 -0.21739243 40 6 1.6812914e+09
3.0808291 -1.9696316 -0.063221335 46 7 1.6812914e+09
3.0189109 -2.799072 -0.50047523 41 4 1.6812914e+09
3.0424094 -1.945151 -0.31226492 45 5 1.6812914e+09
2.9792955 -2.7651978 -0.78186429 41 2 1.6812914e+09
3.0050244 -1.9191377 -0.55986947 45 3 1.6812914e+09
4.2226524 -3.9256697 -1.5344437 4 0 1.6812914e+09
2.9753578 -1.8959225 -0.8052302 46 1 1.6812914e+09
3.3155274 -3.0861585 1.0360178 41 14 1.6812914e+09
3.3248894 -2.1180348 1.0455592 39 15 1.6812914e+09
3.3892982 -3.1548953 0.72620726 2 12 1.6812914e+09
4.1743975 -2.6699972 0.95557123 4 13 1.6812914e+09
9.1663141 -8.5423832 1.0931509 16 10 1.6812914e+09
3.3679049 -2.1626301 0.48648018 2 11 1.6812914e+09
8.8180828 -8.2206497 0.20982155 7 8 1.6812914e+09
3.3843219 -2.177294 0.20908214 2 9 1.6812914e+09
3.0566573 -2.850029 -0.21791755 40 6 1.6812914e+09
3.0865529 -1.9884804 -0.063483119 46 7 1.6812914e+09
3.0114253 -2.8107617 -0.50077945 41 4 1.6812914e+09
3.0464201 -1.9619586 -0.3133522 45 5 1.6812914e+09
2.976794 -2.7822866 -0.78376889 41 2 1.6812914e+09
3.0066195 -1.9349499 -0.56143558 45 3 1.6812914e+09
4.2018738 -3.9337811 -1.5318573 4 0 1.6812914e+09
2.9793134 -1.9123447 -0.80803776 46 1 1.6812914e+09
3.3207254 -3.1127136 1.0410715 42 14 1.6812914e+09
3.3235774 -2.1335342 1.0474976 34 15 1.6812914e+09
3.3818672 -3.1700859 0.72698772 3 12 1.6812914e+09
4.1382198 -2.6672933 0.94937557 3 13 1.6812914e+09
9.0961657 -8.533536 1.0881394 13 10 1.6812914e+09
3.3665903 -2.1784103 0.48739293 2 11 1.6812914e+09
8.76929 -8.2325592 0.2093416 7 8 1.6812914e+09
3.3892794 -2.1972287 0.20986716 2 9 1.6812914e+09
3.0630643 -2.8760684 -0.21909903 39 6 1.6812914e+09
3.0858879 -2.0033181 -0.063614018 47 7 1.6812914e+09
3.01967 -2.8382592 -0.50382185 42 4 1.6812914e+09
3.0412993 -1.9744647 -0.31356964 45 5 1.6812914e+09
2.9795685 -2.8044407 -0.78710204 41 2 1.6812914e+09
2.9998469 -1.9454331 -0.56143558 45 3 1.6812914e+09
4.1635237 -3.9252245 -1.5228045 4 0 1.6812914e+09
2.9784255 -1.9272138 -0.80972236 45 1 1.6812914e+09
3.3222361 -3.1359963 1.0450022 42 14 1.6812914e+09
3.3221977 -2.1490507 1.0494363 29 15 1.6812914e+09
3.3851414 -3.1954374 0.73010951 3 12 1.6812914e+09
4.0876966 -2.6550252 0.93984365 3 13 1.6812914e+09
9.0431108 -8.5462866 1.0855248 12 10 1.6812914e+09
3.3714464 -2.1982665 0.48921835 2 11 1.6812914e+09
8.7227135 -8.2491846 0.20894893 7 8 1.6812914e+09
3.3832951 -2.211 0.20999801 2 9 1.6812914e+09
3.0579412 -2.8924243 -0.21949284 9 6 1.6812914e+09
3.08725 -2.0195405 -0.063788541 45 7 1.6812914e+09
3.0146503 -2.8544281 -0.50473464 42 4 1.6812914e+09
3.0406463 -1.9891511 -0.31422201 45 5 1.6812914e+09
2.9768832 -2.8215806 -0.78900677 41 2 1.6812914e+09
3.0013127 -1.9612848 -0.56300163 45 3 1.6812914e+09
4.0972719 -3.8898373 -1.5034058 6 0 1.6812914e+09
2.9778073 -1.9415824 -0.81140697 45 1 1.6812914e+09
3.3177791 -3.1548696 1.0472484 41 14 1.6812914e+09
3.3264458 -2.1691132 1.0533135 22 15 1.6812914e+09
3.3734066 -3.207823 0.73010951 3 12 1.6812914e+09
4.0594473 -2.6579082 0.93555427 2 13 1.6812914e+09
8.9879704 -8.5537605 1.0824744 12 10 1.6812914e+09
3.365442 -2.2119689 0.48952261 3 11 1.6812914e+09
8.6793861 -8.2657881 0.20859987 6 8 1.6812914e+09
3.3880761 -2.2310197 0.21078305 2 9 1.6812914e+09
3.1996167 -3.047781 -0.23052 1 6 1.6812914e+09
3.0822706 -2.0316782 -0.063832171 45 7 1.6812914e+09
3.0154393 -2.8752124 -0.50656003 41 4 1.6812914e+09
3.0420089 -2.0052252 -0.31509182 45 5 1.6812914e+09
2.9718447 -2.8375592 -0.79043531 41 2 1.6812914e+09
3.0023592 -1.9776946 -0.56456769 45 3 1.6812914e+09
4.0505123 -3.8723984 -1.4911199 1 0 1.6812914e+09
2.9771252 -1.95597 -0.81309152 45 1 1.6812914e+09
3.3172991 -3.1765444 1.0506176 41 14 1.6812914e+09
3.3228936 -2.1833591 1.054606 13 15 1.6812914e+09
3.3711033 -3.2281218 0.73206067 3 12 1.6812914e+09
nan nan nan 0 13 1.6812914e+09
8.9203024 -8.5488892 1.0778986 12 10 1.6812914e+09
3.3721931 -2.2332778 0.49165228 2 11 1.6812914e+09
8.6234236 -8.2700796 0.20794542 6 8 1.6812914e+09
3.3761046 -2.2400775 0.21052139 2 9 1.6812914e+09
7.1799874 -6.890204 -0.52142674 1 6 1.6812914e+09
3.0793276 -2.0451851 -0.063919432 45 7 1.6812914e+09
3.021487 -2.901195 -0.50929821 11 4 1.6812914e+09
3.0453722 -2.0227082 -0.3161791 45 5 1.6812914e+09
2.9743011 -2.8598282 -0.79376841 41 2 1.6812914e+09
3.007791 -1.9963394 -0.56691676 46 3 1.6812914e+09
3.0734532 -2.9583275 -1.132889 1 0 1.6812914e+09
2.9723125 -1.9676924 -0.81365305 45 1 1.6812914e+09
3.3190205 -3.1993675 1.0545483 41 14 1.6812914e+09
3.3257124 -2.2010186 1.0578369 11 15 1.6812914e+09
3.3817062 -3.2598557 0.73674333 4 12 1.6812914e+09
nan nan nan 0 13 1.6812914e+09
8.8668146 -8.5542116 1.0748482 11 10 1.6812914e+09
3.3709664 -2.2485719 0.49256501 2 11 1.6812914e+09
8.5402117 -8.2448025 0.20659284 6 8 1.6812914e+09
3.3811212 -2.2595699 0.21130641 2 9 1.6812914e+09
7.1588945 -6.9157109 -0.52155805 1 6 1.6812914e+09
3.0829253 -2.0623219 -0.064137593 43 7 1.6812914e+09
3.0368185 -2.935353 -0.51355755 2 4 1.6812914e+09
3.0427916 -2.0355604 -0.316614 45 5 1.6812914e+09
2.9718518 -2.8765059 -0.79567307 41 2 1.6812914e+09
3.0073175 -2.0104117 -0.56809133 46 3 1.6812914e+09
3.0445559 -2.9500101 -1.1257761 2 0 1.6812914e+09
2.9698281 -1.9802357 -0.81477606 45 1 1.6812914e+09
3.3235586 -3.2262106 1.059602 40 14 1.6812914e+09
10.738003 -7.1480484 3.4423323 43 15 1.6812914e+09
3.3951039 -3.2957294 0.74220651 4 12 1.6812914e+09
3.3605213 -2.2509925 0.77875489 1 13 1.6812914e+09
8.8047504 -8.5538683 1.0709262 12 10 1.6812914e+09
3.371341 -2.2658525 0.49378195 2 11 1.6812914e+09
8.5006275 -8.2641077 0.20633106 3 8 1.6812914e+09
3.3732131 -2.2713585 0.21130641 2 9 1.6812914e+09
3.4936969 -3.3974526 -0.25441214 1 6 1.6812914e+09
3.0840056 -2.0786486 -0.064312115 46 7 1.6812914e+09
3.0229986 -2.9424725 -0.51294905 1 4 1.6812914e+09
3.0418684 -2.0503373 -0.31726635 45 5 1.6812914e+09
2.9758468 -2.9005723 -0.79948235 39 2 1.6812914e+09
3.0023313 -2.0222738 -0.56848288 45 3 1.6812914e+09
3.046334 -2.9724302 -1.1303024 2 0 1.6812914e+09
2.9689693 -1.9946581 -0.81646073 45 1 1.6812914e+09
3.3175011 -3.242903 1.0612866 38 14 1.6812914e+09
10.714992 -7.186831 3.4429784 48 15 1.6812914e+09
nan nan nan 0 12 1.6812914e+09
3.3933587 -2.2901206 0.78828669 2 13 1.6812914e+09
8.7445793 -8.5549393 1.0672221 11 10 1.6812914e+09
3.3839734 -2.291497 0.49682435 2 11 1.6812914e+09
8.4735146 -8.2954779 0.20637469 3 8 1.6812914e+09
3.3859401 -2.2971125 0.21261482 2 9 1.6812914e+09
8.4656019 -8.29352 -0.62132752 2 6 1.6812914e+09
3.0867128 -2.0969486 -0.064530268 46 7 1.6812914e+09
3.7230365 -3.6498263 -0.63494939 2 4 1.6812914e+09
3.0384567 -2.0642669 -0.31770128 43 5 1.6812914e+09
2.972707 -2.9178219 -0.80138707 4 2 1.6812914e+09
2.9993439 -2.0355096 -0.5692659 45 3 1.6812914e+09
4.0976229 -4.0284939 -1.5292708 7 0 1.6812914e+09
2.9697144 -2.0109799 -0.81870681 45 1 1.6812914e+09
3.3183091 -3.2664306 1.0652173 33 14 1.6812914e+09
10.719862 -7.2444634 3.4526715 59 15 1.6812914e+09
4.4538922 -4.3851123 0.98219442 1 12 1.6812914e+09
3.3711274 -2.2923079 0.78495055 2 13 1.6812914e+09
8.6794662 -8.5537128 1.0630821 8 10 1.6812914e+09
3.3841591 -2.3088796 0.49804127 2 11 1.6812914e+09
8.3861094 -8.2703056 0.20497851 4 8 1.6812914e+09
3.3898723 -2.3179483 0.21339986 2 9 1.6812914e+09
3.4550827 -3.4083347 -0.25336194 2 6 1.6812914e+09
3.0835032 -2.1105294 -0.06461753 45 7 1.6812914e+09
nan nan nan 0 4 1.6812914e+09
3.0394602 -2.0804772 -0.31857109 43 5 1.6812914e+09
nan nan nan 0 2 1.6812914e+09
3.00038 -2.0515308 -0.57083195 45 3 1.6812914e+09
3.049005 -3.0179467 -1.1393552 1 0 1.6812914e+09
2.9687192 -2.0254447 -0.82039136 45 1 1.6812914e+09
3.3149614 -3.2871511 1.068025 28 14 1.6812914e+09
10.725182 -7.3054457 3.4630108 70 15 1.6812914e+09
4.4570708 -4.4205408 0.98648679 1 12 1.6812914e+09
3.3809364 -2.3171146 0.78923988 3 13 1.6812914e+09
8.6195087 -8.5541296 1.059378 6 10 1.6812914e+09
3.3822186 -2.3248887 0.49895403 2 11 1.6812914e+09
8.3891106 -8.3312378 0.20576386 4 8 1.6812914e+09
9.3299685 -6.4178576 0.59165794 4 9 1.6812914e+09
3.4396234 -3.4168544 -0.25309938 2 6 1.6812914e+09
3.0843556 -2.126946 -0.064792052 45 7 1.6812914e+09
3.0319557 -3.0147471 -0.51994663 1 4 1.6812914e+09
3.0424395 -2.0981312 -0.31965837 43 5 1.6812914e+09
3.0426788 -3.0285718 -0.82614774 1 2 1.6812914e+09
3.0054114 -2.0703807 -0.57318103 45 3 1.6812914e+09
3.0640974 -3.0541544 -1.1490546 2 0 1.6812914e+09
2.9696686 -2.0413046 -0.8226375 45 1 1.6812914e+09
3.3247242 -3.3187861 1.0747633 18 14 1.6812914e+09
10.647114 -7.3041043 3.4455631 1 15 1.6812914e+09
4.4423871 -4.4352961 0.98648679 1 12 1.6812914e+09
3.3752549 -2.329705 0.78971648 3 13 1.6812914e+09
8.5543699 -8.5489511 1.0550202 4 10 1.6812914e+09
3.3822489 -2.3423228 0.50017101 2 11 1.6812914e+09
3.4530954 -3.4506702 0.084600531 2 8 1.6812914e+09
3.3842795 -2.3480728 0.21405403 2 9 1.6812914e+09
3.4265089 -3.4264762 -0.25296813 2 6 1.6812914e+09
3.0851302 -2.1433942 -0.064966574 46 7 1.6812914e+09
2.9886334 -2.9914181 -0.51416606 2 4 1.6812914e+09
3.0395598 -2.1110451 -0.32009327 43 5 1.6812914e+09
3.0199597 -3.0270069 -0.82281446 2 2 1.6812914e+09
3.0001967 -2.0822644 -0.57357258 45 3 1.6812914e+09
3.0108247 -3.0220444 -1.132889 2 0 1.6812914e+09
2.9769163 -2.0608294 -0.82656819 45 1 1.6812914e+09
3.3165543 -3.3338268 1.0758864 12 14 1.6812914e+09
10.734823 -7.4194531 3.4823968 75 15 1.6812914e+09
4.4355831 -4.4595327 0.98843795 1 12 1.6812914e+09
3.3771846 -2.3484669 0.79209942 3 13 1.6812914e+09
8.4978848 -8.5490055 1.0515341 1 10 1.6812914e+09
3.3842354 -2.361203 0.50169218 2 11 1.6812914e+09
3.0130291 -3.0317044 0.073998198 6 8 1.6812914e+09
9.333168 -6.5140605 0.59466732 3 9 1.6812914e+09
2.9942369 -3.0148849 -0.22159325 7 6 1.6812914e+09
3.0858281 -2.1598735 -0.065141104 45 7 1.6812914e+09
3.0078712 -3.0317903 -0.51933813 2 4 1.6812914e+09
3.0399706 -2.1278737 -0.32096308 45 5 1.6812914e+09
3.9158399 -3.953218 -1.0728016 9 2 1.6812914e+09
3.0030365 -2.0997863 -0.57553017 45 3 1.6812914e+09
4.0121145 -4.0561171 -1.5182781 7 0 1.6812914e+09
2.9733424 -2.0745096 -0.82769126 45 1 1.6812914e+09
3.3083198 -3.3488507 1.0770094 9 14 1.6812914e+09
10.730665 -7.4720521 3.4895051 74 15 1.6812914e+09
3.3860562 -3.4276149 0.75586432 4 12 1.6812914e+09
3.3709774 -2.3616469 0.79257601 3 13 1.6812914e+09
8.4455061 -8.5588198 1.0489193 1 10 1.6812914e+09
3.3881621 -2.3815498 0.50351763 2 11 1.6812914e+09
2.9755752 -3.0160258 0.073343731 18 8 1.6812914e+09
3.3735185 -2.3765364 0.21444657 2 9 1.6812914e+09
2.9866707 -3.0293965 -0.2218558 22 6 1.6812914e+09
3.0823591 -2.1735082 -0.065228365 45 7 1.6812914e+09
3.0332887 -3.079936 -0.52572715 28 4 1.6812914e+09
3.0406725 -2.1442034 -0.3218329 45 5 1.6812914e+09
3.8968554 -3.9616125 -1.0713731 11 2 1.6812914e+09
3.0057907 -2.117353 -0.57748777 45 3 1.6812914e+09
4.0013156 -4.0735431 -1.5195714 8 0 1.6812914e+09
2.9720671 -2.0890706 -0.8293758 45 1 1.6812914e+09
10.747188 -10.964521 3.5308836 41 14 1.6812914e+09
10.726933 -7.5279703 3.4972596 76 15 1.6812914e+09
3.3993955 -3.4664578 0.76171774 4 12 1.6812914e+09
3.3803568 -2.3867056 0.7968654 3 13 1.6812914e+09
8.3894367 -8.5615606 1.045651 1 10 1.6812914e+09
3.3814373 -2.3953843 0.50382185 2 11 1.6812914e+09
2.9702749 -3.0317526 0.073474631 28 8 1.6812914e+09
3.3713152 -2.392626 0.2148391 2 9 1.6812914e+09
2.986553 -3.0505114 -0.22264345 30 6 1.6812914e+09
3.0869906 -2.192925 -0.065490149 45 7 1.6812914e+09
2.9982398 -3.0656598 -0.5214678 30 4 1.6812914e+09
3.0433302 -2.1620038 -0.32292017 43 5 1.6812914e+09
3.902878 -3.9969463 -1.077087 11 2 1.6812914e+09
3.0080857 -2.1354897 -0.5794453 45 3 1.6812914e+09
4.0022435 -4.1030493 -1.5253911 7 0 1.6812914e+09
2.9786866 -2.1092696 -0.83330649 45 1 1.6812914e+09
10.747926 -11.042125 3.5437987 48 14 1.6812914e+09
10.734123 -7.589057 3.5082448 74 15 1.6812914e+09
3.3769412 -3.4676845 0.75937635 3 12 1.6812914e+09
3.3720052 -2.3984909 0.7968654 3 13 1.6812914e+09
8.3438711 -8.5747271 1.04369 1 10 1.6812914e+09
3.3750768 -2.4086123 0.50412613 2 11 1.6812914e+09
2.9701283 -3.0528564 0.073736414 28 8 1.6812914e+09
3.3852999 -2.4203267 0.21627831 2 9 1.6812914e+09
2.9880633 -3.0734527 -0.22356237 30 6 1.6812914e+09
3.0874548 -2.2094963 -0.065664671 45 7 1.6812914e+09
2.9909766 -3.0796685 -0.52207631 6 4 1.6812914e+09
3.0438731 -2.1784015 -0.32378998 43 5 1.6812914e+09
3.8496196 -3.9700089 -1.0661353 3 2 1.6812914e+09
3.0066438 -2.1502786 -0.58061993 45 3 1.6812914e+09
3.986217 -4.1152596 -1.5247444 7 0 1.6812914e+09
2.9772608 -2.1238911 -0.8349911 45 1 1.6812914e+09
10.744868 -11.116364 3.5555909 57 14 1.6812914e+09
10.72921 -7.6418834 3.5153532 75 15 1.6812914e+09
3.3854086 -3.5007594 0.76405907 3 12 1.6812914e+09
3.3775876 -2.4202373 0.80020154 3 13 1.6812914e+09
8.2827425 -8.571559 1.039768 1 10 1.6812914e+09
3.373121 -2.4241288 0.50503886 2 11 1.6812914e+09
2.9733419 -3.0775924 0.074085459 22 8 1.6812914e+09
3.368721 -2.4263015 0.21575497 2 9 1.6812914e+09
2.9825168 -3.0892546 -0.22395621 29 6 1.6812914e+09
3.0858116 -2.224638 -0.065795571 45 7 1.6812914e+09
2.9991488 -3.1097448 -0.52542293 11 4 1.6812914e+09
3.0402946 -2.1919215 -0.32422492 43 5 1.6812914e+09
5.417665 -5.6253214 -1.5084933 2 2 1.6812914e+09
3.0035074 -2.1631179 -0.5814029 45 3 1.6812914e+09
3.9601126 -4.1169624 -1.520218 7 0 1.6812914e+09
2.9718091 -2.1356897 -0.83555263 43 1 1.6812914e+09
10.750121 -11.195868 3.5696292 59 14 1.6812914e+09
10.739142 -7.702745 3.5269849 74 15 1.6812914e+09
3.3960116 -3.5351248 0.7691319 3 12 1.6812914e+09
3.3715351 -2.4328582 0.80067813 3 13 1.6812914e+09
8.2407026 -8.5878382 1.0382427 1 10 1.6812914e+09
3.3726845 -2.4417002 0.50625581 2 11 1.6812914e+09
2.9700406 -3.0946519 0.074259989 21 8 1.6812914e+09
3.3667247 -2.4418502 0.2161475 2 9 1.6812914e+09
2.9808927 -3.1081405 -0.22461258 29 6 1.6812914e+09
3.0820758 -2.2383287 -0.065882832 43 7 1.6812914e+09
3.0008314 -3.1322205 -0.5275526 11 4 1.6812914e+09
3.0410779 -2.2078342 -0.32509473 43 5 1.6812914e+09
5.364078 -5.6087184 -1.49897 3 2 1.6812914e+09
3.0079405 -2.1822741 -0.58375204 45 3 1.6812914e+09
3.9390473 -4.1237736 -1.5176315 6 0 1.6812914e+09
2.9745867 -2.1526613 -0.83836025 41 1 1.6812914e+09
10.749637 -11.273882 3.5825441 63 14 1.6812914e+09
10.73177 -7.7543225 3.533447 74 15 1.6812914e+09
3.3870587 -3.5505321 0.76991242 4 12 1.6812914e+09
3.3809021 -2.4575794 0.80496752 3 13 1.6812914e+09
8.1606359 -8.5610294 1.0317061 2 10 1.6812914e+09
3.3661473 -2.4549181 0.50656003 2 11 1.6812914e+09
2.9712865 -3.1176715 0.074565403 20 8 1.6812914e+09
3.3844073 -2.4727051 0.21784841 2 9 1.6812914e+09
2.9855142 -3.1348035 -0.22579406 29 6 1.6812914e+09
3.0843396 -2.2564411 -0.066100985 43 7 1.6812914e+09
3.0069764 -3.1606612 -0.53059506 16 4 1.6812914e+09
3.0450358 -2.2277744 -0.32639945 43 5 1.6812914e+09
5.2549138 -5.5330715 -1.4737332 1 2 1.6812914e+09
3.0062907 -2.1971238 -0.58492661 45 3 1.6812914e+09
3.92629 -4.1392508 -1.5182781 6 0 1.6812914e+09
2.9666772 -2.1635494 -0.83836025 35 1 1.6812914e+09
10.748737 -11.352026 3.5954592 55 14 1.6812914e+09
10.733933 -7.8130445 3.5431399 76 15 1.6812914e+09
3.3865278 -3.5748866 0.77264392 3 12 1.6812914e+09
3.3861747 -2.4794996 0.80830365 3 13 1.6812914e+09
8.1223574 -8.5836449 1.0308346 3 10 1.6812914e+09
3.3715672 -2.4769216 0.5086897 3 11 1.6812914e+09
2.9718597 -3.1412561 0.074870817 30 8 1.6812914e+09
3.3833704 -2.4910052 0.21837178 3 9 1.6812914e+09
2.9860055 -3.1584289 -0.22671302 28 6 1.6812914e+09
3.0845003 -2.2731156 -0.066275507 45 7 1.6812914e+09
2.9987776 -3.1752703 -0.53120351 29 4 1.6812914e+09
3.0412545 -2.2413402 -0.32683438 42 5 1.6812914e+09
