# .PCD v0.7 - Point Cloud Data file format
VERSION 0.7
FIELDS x y z intensity ring timestamp
SIZE 4 4 4 4 2 8
TYPE F F F F U F
COUNT 1 1 1 1 1 1
WIDTH 918
HEIGHT 1
VIEWPOINT 0 0 0 1 0 0 0
POINTS 918
DATA ascii
1.4153402 -9.3011856 -0.1636163 52 7 1.6812926e+09
-0.28818864 -10.003609 -1.2227416 39 4 1.6812926e+09
1.4184498 -9.3216352 -0.82023901 41 5 1.6812926e+09
nan nan nan 0 2 1.6812926e+09
1.4184428 -9.3000298 -1.486199 17 3 1.6812926e+09
-0.16531646 -5.5312562 -1.4723676 19 0 1.6812926e+09
0.97680557 -6.3622479 -1.4756937 26 1 1.6812926e+09
-0.30891466 -9.9963369 2.2972083 46 14 1.6812926e+09
1.4299207 -9.3103456 2.5111513 49 15 1.6812926e+09
-0.30923843 -10.006363 1.5765058 49 12 1.6812926e+09
1.4104532 -9.3131485 1.8224959 46 13 1.6812926e+09
-0.31109023 -10.009485 0.87308264 46 10 1.6812926e+09
1.3973421 -9.3252172 1.1518537 48 11 1.6812926e+09
-0.3136934 -9.9809942 0.17369506 46 8 1.6812926e+09
1.3877397 -9.316514 0.49182713 49 9 1.6812926e+09
-0.31630895 -9.9537039 -0.5218206 44 6 1.6812926e+09
1.3858131 -9.3258476 -0.16396534 51 7 1.6812926e+09
-0.32375035 -10.022383 -1.2251756 40 4 1.6812926e+09
1.3870046 -9.3339205 -0.82089138 41 5 1.6812926e+09
-0.22791471 -6.9226761 -1.3370737 19 2 1.6812926e+09
1.3863358 -9.3073654 -1.4865905 16 3 1.6812926e+09
-0.18413515 -5.5161648 -1.4684879 19 0 1.6812926e+09
0.95459127 -6.3656192 -1.4756937 26 1 1.6812926e+09
-0.34239697 -10.004996 2.2994545 46 14 1.6812926e+09
1.4011979 -9.3293648 2.5150285 55 15 1.6812926e+09
-0.34301323 -10.022558 1.5792373 50 12 1.6812926e+09
1.3813651 -9.3299122 1.8248791 48 13 1.6812926e+09
-0.3448835 -10.025821 0.87460786 49 10 1.6812926e+09
1.3678538 -9.3396196 1.1530706 52 11 1.6812926e+09
-0.34792387 -10.012375 0.17426227 50 8 1.6812926e+09
1.3590024 -9.335887 0.49261215 50 9 1.6812926e+09
-0.35019487 -9.9775496 -0.52313334 43 6 1.6812926e+09
1.3550513 -9.3429956 -0.1641835 57 7 1.6812926e+09
-0.35733902 -10.031173 -1.2263924 40 4 1.6812926e+09
1.3547733 -9.3411703 -0.82110882 42 5 1.6812926e+09
-0.25212294 -6.9562192 -1.3437399 18 2 1.6812926e+09
1.355464 -9.3119116 -1.4865905 16 3 1.6812926e+09
-0.20365831 -5.522728 -1.4704278 21 0 1.6812926e+09
0.9305923 -6.3568621 -1.4728861 26 1 1.6812926e+09
-0.37787232 -10.018347 2.3028233 49 14 1.6812926e+09
1.3686237 -9.3341999 2.5150285 43 15 1.6812926e+09
-0.37808996 -10.023768 1.5796276 52 12 1.6812926e+09
1.3501977 -9.3443918 1.8267853 46 13 1.6812926e+09
-0.38181803 -10.029468 0.87504369 44 10 1.6812926e+09
1.3355967 -9.3467941 1.1533748 55 11 1.6812926e+09
-0.38461876 -10.011032 0.17426227 49 8 1.6812926e+09
1.3247756 -9.3408041 0.49261215 48 9 1.6812926e+09
-0.38744208 -9.9936619 -0.52405226 43 6 1.6812926e+09
1.3231324 -9.3526182 -0.16427076 44 7 1.6812926e+09
-0.39478764 -10.047151 -1.2285221 40 4 1.6812926e+09
1.3249587 -9.3655682 -0.8228485 42 5 1.6812926e+09
-0.276207 -6.9503913 -1.3427876 18 2 1.6812926e+09
1.3236477 -9.3214769 -1.4873735 15 3 1.6812926e+09
-0.22234593 -5.5075054 -1.4665481 18 0 1.6812926e+09
0.90805078 -6.3576598 -1.4723246 27 1 1.6812926e+09
-0.41509464 -10.029064 2.3056309 46 14 1.6812926e+09
1.3361169 -9.3511047 2.5182593 51 15 1.6812926e+09
-0.41554415 -10.039585 1.5823592 50 12 1.6812926e+09
1.3166261 -9.3541384 1.8277385 52 13 1.6812926e+09
-0.41786358 -10.052956 0.87722254 48 10 1.6812926e+09
1.3023595 -9.3589993 1.1542876 56 11 1.6812926e+09
-0.42061257 -10.034603 0.17469859 51 8 1.6812926e+09
1.2942206 -9.3602085 0.49339721 52 9 1.6812926e+09
-0.42274755 -10.002225 -0.52457738 43 6 1.6812926e+09
1.2908206 -9.3596563 -0.1643144 56 7 1.6812926e+09
-0.43049538 -10.060587 -1.2303476 39 4 1.6812926e+09
1.2932831 -9.3775368 -0.82350081 41 5 1.6812926e+09
-0.30585465 -7.0449572 -1.361358 21 2 1.6812926e+09
1.2894739 -9.3262653 -1.4873735 16 3 1.6812926e+09
-0.24124955 -5.4994578 -1.4646082 19 0 1.6812926e+09
0.88483948 -6.3535533 -1.4706399 26 1 1.6812926e+09
-0.45097736 -10.047024 2.3101234 52 14 1.6812926e+09
1.3034674 -9.3557119 2.5182593 49 15 1.6812926e+09
-0.45114207 -10.050407 1.5843103 54 12 1.6812926e+09
1.2836314 -9.3562469 1.827262 48 13 1.6812926e+09
-0.45283991 -10.048949 0.87700468 46 10 1.6812926e+09
1.2693479 -9.3610296 1.1539834 55 11 1.6812926e+09
-0.45586491 -10.038067 0.17478584 47 8 1.6812926e+09
1.2615396 -9.3646698 0.49339721 55 9 1.6812926e+09
-0.45846117 -10.018147 -0.5254963 43 6 1.6812926e+09
1.2578073 -9.3616276 -0.16427076 64 7 1.6812926e+09
-0.4664169 -10.076375 -1.2324773 40 4 1.6812926e+09
1.2622056 -9.3943357 -0.82458806 41 5 1.6812926e+09
-0.3316004 -7.0683613 -1.3661196 19 2 1.6812926e+09
1.2582347 -9.340497 -1.4889396 14 3 1.6812926e+09
-0.26090485 -5.5082312 -1.4671946 21 0 1.6812926e+09
0.86265612 -6.3566027 -1.4706399 26 1 1.6812926e+09
-0.48616344 -10.04782 2.3106847 50 14 1.6812926e+09
1.2714539 -9.3649912 2.5195518 50 15 1.6812926e+09
-0.48682061 -10.061103 1.5862614 50 12 1.6812926e+09
1.2539006 -9.3825607 1.8315513 49 13 1.6812926e+09
-0.48900557 -10.069695 0.87896568 48 10 1.6812926e+09
1.2418898 -9.3922462 1.15733 57 11 1.6812926e+09
-0.49188188 -10.056388 0.17513488 50 8 1.6812926e+09
1.2314501 -9.3888187 0.49444395 54 9 1.6812926e+09
-0.49429104 -10.03394 -0.52641523 43 6 1.6812926e+09
1.2290263 -9.3957014 -0.16479434 57 7 1.6812926e+09
-0.50208247 -10.084599 -1.2336943 40 4 1.6812926e+09
1.2307024 -9.4085617 -0.82545793 42 5 1.6812926e+09
-0.34860367 -6.939765 -1.3413591 18 2 1.6812926e+09
1.226931 -9.3421707 -1.4885482 14 3 1.6812926e+09
-0.27951339 -5.4952283 -1.4639615 19 0 1.6812926e+09
0.84046209 -6.3595757 -1.4706399 27 1 1.6812926e+09
-0.52213126 -10.097244 2.3224771 48 14 1.6812926e+09
1.2419822 -9.3811264 2.522783 49 15 1.6812926e+09
-0.52210099 -10.096425 1.5921148 46 12 1.6812926e+09
1.2215072 -9.3769331 1.8296449 50 13 1.6812926e+09
-0.52454209 -10.075388 0.8796193 49 10 1.6812926e+09
1.2075076 -9.3842182 1.1558087 56 11 1.6812926e+09
-0.52614307 -10.072174 0.17544031 49 8 1.6812926e+09
1.1993558 -9.3854208 0.4940514 62 9 1.6812926e+09
-0.52874583 -10.054684 -0.52759671 43 6 1.6812926e+09
1.1952711 -9.3924952 -0.16466343 63 7 1.6812926e+09
-0.53657764 -10.102701 -1.2361281 40 4 1.6812926e+09
1.1994958 -9.412591 -0.82545793 41 5 1.6812926e+09
-0.37163517 -6.91645 -1.3370737 21 2 1.6812926e+09
1.1955696 -9.3561916 -1.4901141 14 3 1.6812926e+09
-0.29882544 -5.4966307 -1.4646082 18 0 1.6812926e+09
0.81842959 -6.3550806 -1.4689554 27 1 1.6812926e+09
-0.55926007 -10.129414 2.3303382 8 14 1.6812926e+09
1.2110873 -9.3997746 2.52666 52 15 1.6812926e+09
-0.55925268 -10.129059 1.5975779 35 12 1.6812926e+09
1.1915556 -9.4030514 1.8339343 54 13 1.6812926e+09
-0.56016088 -10.113379 0.88310558 52 10 1.6812926e+09
1.1769084 -9.405611 1.1579384 59 11 1.6812926e+09
-0.56367034 -10.112702 0.17618203 54 8 1.6812926e+09
1.1687503 -9.4068918 0.49496728 52 9 1.6812926e+09
-0.56426066 -10.060253 -0.52799052 41 6 1.6812926e+09
1.1643267 -9.4114943 -0.16492523 90 7 1.6812926e+09
-0.57254279 -10.113154 -1.2376494 39 4 1.6812926e+09
1.1668307 -9.4317532 -0.82676268 41 5 1.6812926e+09
-0.39633921 -6.924911 -1.3389783 21 2 1.6812926e+09
1.1629032 -9.3603077 -1.4901141 14 3 1.6812926e+09
-0.31815073 -5.4979649 -1.4652548 18 0 1.6812926e+09
0.79513168 -6.3580375 -1.4689554 27 1 1.6812926e+09
nan nan nan 0 14 1.6812926e+09
1.1776657 -9.3991528 2.5253677 52 15 1.6812926e+09
-0.5986706 -10.196067 1.6085042 9 12 1.6812926e+09
1.159328 -9.4120245 1.8348875 51 13 1.6812926e+09
-0.59840262 -10.131147 0.88484871 4 10 1.6812926e+09
1.1458737 -9.4244413 1.1597638 50 11 1.6812926e+09
-0.6044485 -10.172949 0.1772728 18 8 1.6812926e+09
1.1357642 -9.4235048 0.49562147 55 9 1.6812926e+09
-0.60247386 -10.080547 -0.529172 42 6 1.6812926e+09
1.1329645 -9.4279099 -0.16514339 55 7 1.6812926e+09
-0.61080354 -10.130803 -1.2400833 39 4 1.6812926e+09
1.1350939 -9.4456596 -0.82763243 41 5 1.6812926e+09
-0.42140567 -6.9381843 -1.3418353 19 2 1.6812926e+09
1.1314108 -9.3741159 -1.4916803 15 3 1.6812926e+09
-0.33689421 -5.4895897 -1.4633149 18 0 1.6812926e+09
0.77115929 -6.3462644 -1.4655862 29 1 1.6812926e+09
nan nan nan 0 14 1.6812926e+09
1.145842 -9.4249802 2.5311835 43 15 1.6812926e+09
-0.63603705 -10.193804 1.6085042 1 12 1.6812926e+09
1.1271616 -9.4357033 1.8387002 60 13 1.6812926e+09
-0.63142419 -10.091713 0.88158035 6 10 1.6812926e+09
1.1135533 -9.4333124 1.1603724 67 11 1.6812926e+09
-0.64420444 -10.238133 0.17845084 2 8 1.6812926e+09
1.1040282 -9.4373312 0.49614483 62 9 1.6812926e+09
-0.63844824 -10.09084 -0.52982843 41 6 1.6812926e+09
1.1012111 -9.4417372 -0.16531791 50 7 1.6812926e+09
-0.64758861 -10.150897 -1.2428215 39 4 1.6812926e+09
1.1038537 -9.4644051 -0.82893717 42 5 1.6812926e+09
-0.44025159 -6.8533998 -1.3256457 19 2 1.6812926e+09
1.0986822 -9.3780079 -1.4916803 14 3 1.6812926e+09
-0.35574016 -5.4835606 -1.4620216 17 0 1.6812926e+09
0.74928921 -6.3513374 -1.4661478 29 1 1.6812926e+09
nan nan nan 0 14 1.6812926e+09
1.1154355 -9.4359236 2.5331223 50 15 1.6812926e+09
-0.67649436 -10.292664 1.6245034 1 12 1.6812926e+09
1.0961498 -9.4418268 1.8391769 42 13 1.6812926e+09
-0.66796386 -10.109328 0.88332349 7 10 1.6812926e+09
1.0814686 -9.4445362 1.161285 44 11 1.6812926e+09
-0.69604301 -10.505306 0.183163 3 8 1.6812926e+09
1.0735761 -9.4483824 0.49653739 43 9 1.6812926e+09
-0.67307144 -10.106105 -0.53074735 42 6 1.6812926e+09
1.0682465 -9.4455233 -0.16531791 43 7 1.6812926e+09
-0.68207955 -10.161072 -1.2443427 38 4 1.6812926e+09
1.0730256 -9.4729633 -0.82937211 42 5 1.6812926e+09
-0.46317273 -6.8371296 -1.3227886 21 2 1.6812926e+09
1.0662203 -9.3842402 -1.4920719 14 3 1.6812926e+09
-0.37487921 -5.4822855 -1.4620216 18 0 1.6812926e+09
0.72878164 -6.3586278 -1.4672709 27 1 1.6812926e+09
nan nan nan 0 14 1.6812926e+09
1.0833201 -9.4469576 2.5350609 55 15 1.6812926e+09
-0.71327317 -10.302557 1.6264546 1 12 1.6812926e+09
1.0642877 -9.4553509 1.841083 55 13 1.6812926e+09
-0.73329026 -10.564201 0.92341506 7 10 1.6812926e+09
1.0493191 -9.4556532 1.1621978 55 11 1.6812926e+09
-0.73811448 -10.580112 0.18451557 6 8 1.6812926e+09
1.0414118 -9.4595156 0.49692988 56 9 1.6812926e+09
-0.70991945 -10.126108 -0.53192884 41 6 1.6812926e+09
1.0377299 -9.4715576 -0.16571058 57 7 1.6812926e+09
-0.7187711 -10.175956 -1.2464722 38 4 1.6812926e+09
1.0396603 -9.4892101 -0.83045936 43 5 1.6812926e+09
-0.48581064 -6.8183351 -1.3194555 21 2 1.6812926e+09
1.0326425 -9.3805408 -1.4908972 14 3 1.6812926e+09
-0.39366585 -5.4761262 -1.4607284 19 0 1.6812926e+09
0.70547122 -6.3612561 -1.4672709 27 1 1.6812926e+09
-0.75632912 -10.397521 2.3949139 1 14 1.6812926e+09
1.0506054 -9.4530811 2.535707 57 15 1.6812926e+09
-0.74761546 -10.277839 1.6229426 2 12 1.6812926e+09
1.0304744 -9.4516897 1.8396534 52 13 1.6812926e+09
-0.77800989 -10.64341 0.93060541 11 10 1.6812926e+09
1.0168388 -9.4641914 1.1628063 52 11 1.6812926e+09
-0.78184211 -10.644643 0.18569359 7 8 1.6812926e+09
1.0075296 -9.4707155 0.49732238 55 9 1.6812926e+09
-0.74813354 -10.138376 -0.53271645 40 6 1.6812926e+09
1.003338 -9.4626942 -0.16549245 56 7 1.6812926e+09
-0.75735325 -10.190576 -1.248602 37 4 1.6812926e+09
1.0075858 -9.5026884 -0.83132923 42 5 1.6812926e+09
-0.505202 -6.7578616 -1.3080275 19 2 1.6812926e+09
0.99936622 -9.379178 -1.4901141 15 3 1.6812926e+09
-0.41259634 -5.4723105 -1.4600818 18 0 1.6812926e+09
0.6843093 -6.3733678 -1.469517 25 1 1.6812926e+09
-0.79443288 -10.39468 2.3949139 1 14 1.6812926e+09
1.0180242 -9.4760771 2.5408766 54 15 1.6812926e+09
-0.78848648 -10.316887 1.6295763 2 12 1.6812926e+09
0.99659991 -9.4627247 1.841083 54 13 1.6812926e+09
-0.81611079 -10.653045 0.93169487 24 10 1.6812926e+09
0.9829157 -9.4752598 1.1637191 57 11 1.6812926e+09
-0.81534225 -10.594498 0.18486461 8 8 1.6812926e+09
0.97523457 -9.4816265 0.49771494 79 9 1.6812926e+09
-0.78602535 -10.168061 -0.53442305 41 6 1.6812926e+09
0.97286159 -9.491004 -0.16592874 90 7 1.6812926e+09
-0.79504293 -10.215081 -1.2519486 37 4 1.6812926e+09
0.97619498 -9.523489 -0.83285141 42 5 1.6812926e+09
-0.52919728 -6.7461782 -1.3061229 19 2 1.6812926e+09
0.96599835 -9.3926029 -1.4916803 14 3 1.6812926e+09
-0.43207726 -5.4756517 -1.4613751 18 0 1.6812926e+09
0.66155124 -6.370872 -1.4683939 24 1 1.6812926e+09
-0.82915604 -10.372416 2.3904219 2 14 1.6812926e+09
0.98594344 -9.4891815 2.5434616 54 15 1.6812926e+09
-0.8235085 -10.301764 1.6276252 2 12 1.6812926e+09
0.96531081 -9.4832354 1.8444195 49 13 1.6812926e+09
-0.85169744 -10.630271 0.92995179 10 10 1.6812926e+09
0.95058072 -9.4860392 1.1646317 50 11 1.6812926e+09
-0.84689456 -10.524314 0.18368657 9 8 1.6812926e+09
0.94237947 -9.4874563 0.49784577 52 9 1.6812926e+09
-0.82252139 -10.177697 -0.53507942 41 6 1.6812926e+09
0.93972582 -9.4943419 -0.16592874 50 7 1.6812926e+09
-0.83170342 -10.224611 -1.2534699 35 4 1.6812926e+09
0.94245291 -9.5218811 -0.83241647 41 5 1.6812926e+09
-0.55495453 -6.7711954 -1.3113606 19 2 1.6812926e+09
0.93198001 -9.3836336 -1.4897226 13 3 1.6812926e+09
-0.45019251 -5.4620762 -1.4581419 18 0 1.6812926e+09
0.64004344 -6.380414 -1.4700785 24 1 1.6812926e+09
-0.87002653 -10.425295 2.4033368 2 14 1.6812926e+09
0.95329869 -9.4973698 2.5447538 50 15 1.6812926e+09
-0.86193258 -10.328356 1.6323079 2 12 1.6812926e+09
0.93316692 -9.496316 1.8463256 49 13 1.6812926e+09
-0.87940013 -10.493063 0.91818577 3 10 1.6812926e+09
0.91914243 -9.506588 1.1667614 62 11 1.6812926e+09
-0.88446456 -10.531259 0.18386109 9 8 1.6812926e+09
0.90951055 -9.510726 0.49889246 83 9 1.6812926e+09
-0.86234653 -10.204465 -0.53665471 40 6 1.6812926e+09
0.90611243 -9.5101633 -0.16614689 81 7 1.6812926e+09
-0.87127948 -10.246219 -1.2565123 37 4 1.6812926e+09
0.9084968 -9.5351887 -0.83328629 41 5 1.6812926e+09
-0.58312947 -6.8082395 -1.3189793 17 2 1.6812926e+09
0.89758104 -9.3869858 -1.4897226 14 3 1.6812926e+09
-0.47116199 -5.4603076 -1.4581419 17 0 1.6812926e+09
0.61570954 -6.3730183 -1.4678323 24 1 1.6812926e+09
-0.91098589 -10.453587 2.4106367 2 14 1.6812926e+09
0.9205848 -9.5224333 2.5505695 54 15 1.6812926e+09
-0.90042651 -10.332508 1.6334786 3 12 1.6812926e+09
0.89901507 -9.5242615 1.8510917 50 13 1.6812926e+09
-0.91067588 -10.407896 0.91099536 1 10 1.6812926e+09
0.88332444 -9.5174589 1.1676741 51 11 1.6812926e+09
-0.93453807 -10.637344 0.18578085 7 8 1.6812926e+09
0.87533516 -9.5214539 0.49928501 52 9 1.6812926e+09
-0.9010607 -10.216158 -0.53744239 37 6 1.6812926e+09
0.87050426 -9.5235281 -0.16632143 51 7 1.6812926e+09
-0.9101463 -10.257788 -1.2583377 39 4 1.6812926e+09
0.87210548 -9.5410862 -0.83350372 41 5 1.6812926e+09
-0.61421156 -6.8745003 -1.332312 19 2 1.6812926e+09
0.86362439 -9.3951302 -1.4905057 13 3 1.6812926e+09
-0.49117187 -5.4585438 -1.4581419 17 0 1.6812926e+09
0.59146124 -6.3777609 -1.4683939 23 1 1.6812926e+09
-0.95178175 -10.45729 2.4123213 2 14 1.6812926e+09
0.8846876 -9.5331125 2.5525084 48 15 1.6812926e+09
-0.94233602 -10.353565 1.6373808 3 12 1.6812926e+09
0.86387795 -9.5250473 1.850615 49 13 1.6812926e+09
-0.94315201 -10.342485 0.90554816 1 10 1.6812926e+09
0.84976405 -9.5354614 1.1694995 49 11 1.6812926e+09
-0.97694391 -10.671185 0.18643533 7 8 1.6812926e+09
0.84241712 -9.5469809 0.50046259 50 9 1.6812926e+09
-0.94101626 -10.240133 -0.53888643 39 6 1.6812926e+09
0.83879584 -9.5439386 -0.16662684 49 7 1.6812926e+09
-0.94910949 -10.269207 -1.2601632 37 4 1.6812926e+09
0.84076869 -9.5664005 -0.83546084 41 5 1.6812926e+09
-0.63871974 -6.8648725 -1.3308834 17 2 1.6812926e+09
0.82918376 -9.3982325 -1.4905057 13 3 1.6812926e+09
-0.51089954 -5.4640098 -1.4600818 16 0 1.6812926e+09
0.56766731 -6.362802 -1.4644632 25 1 1.6812926e+09
-0.99011618 -10.473307 2.4168136 2 14 1.6812926e+09
0.85248518 -9.5481691 2.5557394 51 15 1.6812926e+09
-0.98010063 -10.36742 1.6401124 3 12 1.6812926e+09
0.83298159 -9.5548983 1.8558576 54 13 1.6812926e+09
-0.97713107 -10.316815 0.9035871 1 10 1.6812926e+09
0.81753796 -9.5507317 1.1710207 51 11 1.6812926e+09
-1.0167942 -10.695083 0.18691526 7 8 1.6812926e+09
0.81014651 -9.5623007 0.50111675 51 9 1.6812926e+09
-0.97818065 -10.251698 -0.5396741 39 6 1.6812926e+09
0.80674422 -9.5617523 -0.16688862 56 7 1.6812926e+09
-0.98708647 -10.288061 -1.2629013 37 4 1.6812926e+09
0.8073706 -9.5692768 -0.83546084 41 5 1.6812926e+09
-0.6619693 -6.8552732 -1.329455 18 2 1.6812926e+09
0.79532468 -9.3887682 -1.4885482 14 3 1.6812926e+09
-0.52926737 -5.4549818 -1.4581419 15 0 1.6812926e+09
0.54608279 -6.3720255 -1.4661478 26 1 1.6812926e+09
-1.0266689 -10.469787 2.4168136 2 14 1.6812926e+09
0.81977332 -9.5583048 2.557678 44 15 1.6812926e+09
-1.0199047 -10.4008 1.6459658 3 12 1.6812926e+09
0.8000353 -9.5626392 1.8568108 44 13 1.6812926e+09
-1.0075281 -10.256336 0.89857566 2 10 1.6812926e+09
0.78668058 -9.563282 1.1722378 46 11 1.6812926e+09
-1.0548577 -10.69893 0.18704616 8 8 1.6812926e+09
0.77716947 -9.5700474 0.50137848 46 9 1.6812926e+09
-1.0159295 -10.268095 -0.54072428 39 6 1.6812926e+09
0.77417314 -9.5744762 -0.16706316 44 7 1.6812926e+09
-1.0249608 -10.304307 -1.2653353 37 4 1.6812926e+09
0.77497214 -9.5844479 -0.83654809 41 5 1.6812926e+09
-0.68641084 -6.8701344 -1.3327881 19 2 1.6812926e+09
0.76438743 -9.393815 -1.4889396 15 3 1.6812926e+09
-0.5487904 -5.4579067 -1.4594351 16 0 1.6812926e+09
0.52262914 -6.3593264 -1.4627786 26 1 1.6812926e+09
-1.0643364 -10.495408 2.4235518 2 14 1.6812926e+09
0.78887051 -9.5705976 2.5602627 50 15 1.6812926e+09
-1.0551381 -10.404731 1.6471364 3 12 1.6812926e+09
0.76871544 -9.5701323 1.857764 50 13 1.6812926e+09
-1.0473639 -10.292399 0.90206188 2 10 1.6812926e+09
0.75407767 -9.5758657 1.1734548 56 11 1.6812926e+09
-1.0946472 -10.737647 0.18778789 10 8 1.6812926e+09
0.74640489 -9.5850163 0.50203264 51 9 1.6812926e+09
-1.0512464 -10.277088 -0.54138064 39 6 1.6812926e+09
0.74171698 -9.5895796 -0.16728131 50 7 1.6812926e+09
-1.0601422 -10.310724 -1.2665522 38 4 1.6812926e+09
0.74415314 -9.5993814 -0.8376354 41 5 1.6812926e+09
-0.71165353 -6.8799014 -1.335169 18 2 1.6812926e+09
0.73139942 -9.3939648 -1.4885482 13 3 1.6812926e+09
-0.56758791 -5.4535561 -1.4587885 16 0 1.6812926e+09
0.50192451 -6.3658814 -1.4639016 26 1 1.6812926e+09
-1.1022389 -10.503742 2.4263594 2 14 1.6812926e+09
0.75564927 -9.5756998 2.5609088 50 15 1.6812926e+09
-1.094032 -10.425543 1.6510386 3 12 1.6812926e+09
0.7354939 -9.5752029 1.8582405 48 13 1.6812926e+09
-1.0794029 -10.269055 0.90031886 2 10 1.6812926e+09
0.7226944 -9.5832615 1.1740632 50 11 1.6812926e+09
-1.1315967 -10.728789 0.18770063 11 8 1.6812926e+09
0.71312857 -9.5900517 0.50216347 60 9 1.6812926e+09
-1.0905343 -10.305631 -0.54308724 39 6 1.6812926e+09
0.70972699 -9.5894947 -0.16723767 76 7 1.6812926e+09
-1.099281 -10.336572 -1.2702031 37 4 1.6812926e+09
0.71119553 -9.6093721 -0.83828777 41 5 1.6812926e+09
-0.73968869 -6.9263101 -1.3446922 17 2 1.6812926e+09
0.69987446 -9.3914137 -1.4877651 13 3 1.6812926e+09
-0.58411723 -5.4372377 -1.4549088 14 0 1.6812926e+09
0.47951561 -6.3651657 -1.4633402 25 1 1.6812926e+09
-1.1389033 -10.516982 2.4302902 2 14 1.6812926e+09
0.72444052 -9.5853786 2.5628476 50 15 1.6812926e+09
-1.1307286 -10.441497 1.6541605 3 12 1.6812926e+09
0.70428044 -9.5849333 1.8596704 48 13 1.6812926e+09
-1.1208994 -10.317219 0.90489447 3 10 1.6812926e+09
0.69138783 -9.6154251 1.177714 54 11 1.6812926e+09
-1.1682518 -10.734916 0.18787514 13 8 1.6812926e+09
0.68274754 -9.6122875 0.50321019 51 9 1.6812926e+09
-1.1260599 -10.314364 -0.54374361 39 6 1.6812926e+09
0.67801887 -9.616847 -0.16767399 54 7 1.6812926e+09
-1.1359912 -10.355068 -1.2729412 37 4 1.6812926e+09
0.68038636 -9.6265821 -0.83959252 41 5 1.6812926e+09
-0.76224303 -6.9090495 -1.3418353 16 2 1.6812926e+09
0.6669119 -9.3913364 -1.4873735 13 3 1.6812926e+09
-0.60202473 -5.4255652 -1.4523222 14 0 1.6812926e+09
0.45875877 -6.3715801 -1.4644632 25 1 1.6812926e+09
-1.1783186 -10.537151 2.4359052 2 14 1.6812926e+09
0.69167596 -9.5974846 2.5654325 48 15 1.6812926e+09
-1.1696426 -10.459572 1.6576725 3 12 1.6812926e+09
0.67133582 -9.5946751 1.8611002 48 13 1.6812926e+09
-1.1684319 -10.432243 0.91535318 4 10 1.6812926e+09
0.65696704 -9.6054029 1.1761929 50 11 1.6812926e+09
-1.206555 -10.738225 0.18800604 13 8 1.6812926e+09
0.64868206 -9.6071386 0.50281769 59 9 1.6812926e+09
-1.1659772 -10.345103 -0.54558146 39 6 1.6812926e+09
0.6454497 -9.609067 -0.16749947 60 7 1.6812926e+09
-1.1743671 -10.370765 -1.2753751 37 4 1.6812926e+09
0.64677912 -9.6288986 -0.83959252 40 5 1.6812926e+09
-0.78440762 -6.8892775 -1.338502 16 2 1.6812926e+09
0.63379091 -9.3886795 -1.4865905 13 3 1.6812926e+09
-0.61726266 -5.3995466 -1.445856 18 0 1.6812926e+09
0.43651503 -6.3731427 -1.4644632 26 1 1.6812926e+09
-1.2164909 -10.545075 2.4387131 2 14 1.6812926e+09
0.65966755 -9.6215239 2.5712483 50 15 1.6812926e+09
-1.2084134 -10.475049 1.6607943 3 12 1.6812926e+09
0.63964337 -9.6238976 1.8663427 52 13 1.6812926e+09
-1.2223012 -10.579013 0.92864442 7 10 1.6812926e+09
0.62489069 -9.6299219 1.178931 51 11 1.6812926e+09
-1.24576 -10.748845 0.18826781 11 8 1.6812926e+09
0.61642838 -9.6292763 0.50386441 50 9 1.6812926e+09
-1.2041019 -10.358328 -0.54650038 38 6 1.6812926e+09
0.61350381 -9.6362047 -0.16793576 60 7 1.6812926e+09
-1.2122899 -10.38139 -1.2772006 37 4 1.6812926e+09
0.61443943 -9.65098 -0.84133214 41 5 1.6812926e+09
-0.8055833 -6.8621235 -1.3337405 17 2 1.6812926e+09
0.60165006 -9.400691 -1.4881566 13 3 1.6812926e+09
-0.63383949 -5.3781734 -1.4406829 17 0 1.6812926e+09
0.4144257 -6.3770585 -1.4650247 26 1 1.6812926e+09
-1.2540414 -10.562756 2.4437668 2 14 1.6812926e+09
0.62886643 -9.6405277 2.5757718 50 15 1.6812926e+09
-1.2454754 -10.490602 1.6639161 3 12 1.6812926e+09
0.60866064 -9.6406593 1.8692021 49 13 1.6812926e+09
-1.2747486 -10.720811 0.94149989 9 10 1.6812926e+09
0.59372145 -9.6443243 1.1804522 50 11 1.6812926e+09
-1.2805084 -10.73721 0.18813694 10 8 1.6812926e+09
0.58525521 -9.6437263 0.50451857 47 9 1.6812926e+09
-1.2411169 -10.376589 -0.54768187 39 6 1.6812926e+09
0.58260781 -9.655653 -0.16824119 51 7 1.6812926e+09
-1.2508587 -10.411803 -1.2814599 34 4 1.6812926e+09
0.58333933 -9.667881 -0.84263688 41 5 1.6812926e+09
-0.82686037 -6.8472314 -1.3313596 17 2 1.6812926e+09
0.56941789 -9.3853836 -1.4854159 11 3 1.6812926e+09
-0.64963102 -5.3592606 -1.4361566 15 0 1.6812926e+09
0.3932763 -6.3783975 -1.4650247 26 1 1.6812926e+09
-1.292385 -10.570404 2.4465744 2 14 1.6812926e+09
0.59581065 -9.6523037 2.5783565 52 15 1.6812926e+09
-1.2835873 -10.498446 1.6658672 3 12 1.6812926e+09
0.57618284 -9.662324 1.873015 52 13 1.6812926e+09
-1.3100417 -10.698993 0.93997467 10 10 1.6812926e+09
0.5607779 -9.6587229 1.1819733 56 11 1.6812926e+09
-1.3164552 -10.72027 0.18791878 9 8 1.6812926e+09
0.55245101 -9.6606646 0.50530362 56 9 1.6812926e+09
-1.2791638 -10.38706 -0.54846954 39 6 1.6812926e+09
0.5493288 -9.6651144 -0.16837208 56 7 1.6812926e+09
-1.2935997 -10.459088 -1.2878489 21 4 1.6812926e+09
0.55030096 -9.6822901 -0.84372413 40 5 1.6812926e+09
-0.8489365 -6.8296914 -1.3285027 18 2 1.6812926e+09
0.53665328 -9.3873129 -1.4854159 11 3 1.6812926e+09
-0.66833431 -5.3569608 -1.4361566 15 0 1.6812926e+09
0.37100914 -6.3797321 -1.4650247 26 1 1.6812926e+09
-1.3374956 -10.631087 2.4617357 3 14 1.6812926e+09
0.56282198 -9.6663809 2.5815876 44 15 1.6812926e+09
-1.3214605 -10.503702 1.6674281 3 12 1.6812926e+09
0.5427289 -9.6691761 1.8739682 43 13 1.6812926e+09
-1.3504972 -10.719063 0.94215357 10 10 1.6812926e+09
0.52705926 -9.6606226 1.1819733 44 11 1.6812926e+09
-1.357005 -10.740408 0.18835509 8 8 1.6812926e+09
0.51913065 -9.6700134 0.50569612 44 9 1.6812926e+09
-1.3188697 -10.409775 -0.54991359 39 6 1.6812926e+09
0.5158565 -9.6719656 -0.16845936 44 7 1.6812926e+09
-0.88042414 -6.9246826 -0.85156852 8 4 1.6812926e+09
0.51703548 -9.6941004 -0.84459394 40 5 1.6812926e+09
-0.8743307 -6.8388577 -1.3308834 16 2 1.6812926e+09
0.50348157 -9.3817339 -1.4842415 11 3 1.6812926e+09
-0.69103503 -5.3857327 -1.4445628 14 0 1.6812926e+09
0.34900686 -6.3858519 -1.4661478 25 1 1.6812926e+09
-1.3714677 -10.602195 2.4561203 9 14 1.6812926e+09
0.52934277 -9.6731081 2.5828798 50 15 1.6812926e+09
-1.3669983 -10.567594 1.6783544 6 12 1.6812926e+09
0.50975472 -9.6857157 1.8768277 51 13 1.6812926e+09
-1.389187 -10.724163 0.94302511 10 10 1.6812926e+09
0.49384499 -9.6723156 1.1831903 51 11 1.6812926e+09
-1.3909416 -10.708339 0.18787514 7 8 1.6812926e+09
0.48587811 -9.6817408 0.50621951 49 9 1.6812926e+09
-1.3571357 -10.419963 -0.55070126 39 6 1.6812926e+09
0.48271984 -9.6861897 -0.16867749 50 7 1.6812926e+09
-0.90072435 -6.8920422 -0.84791762 8 4 1.6812926e+09
0.48369405 -9.7057953 -0.84546369 41 5 1.6812926e+09
-0.89723635 -6.8284655 -1.329455 21 2 1.6812926e+09
0.47097999 -9.3883648 -1.4850245 10 3 1.6812926e+09
-0.70350122 -5.3354058 -1.4316303 15 0 1.6812926e+09
0.32658774 -6.3845992 -1.4655862 25 1 1.6812926e+09
-1.4200367 -10.684277 2.4763353 37 14 1.6812926e+09
0.49644712 -9.691781 2.5874035 48 15 1.6812926e+09
-1.3967118 -10.508906 1.6697695 10 12 1.6812926e+09
0.47594219 -9.6874361 1.8768277 48 13 1.6812926e+09
-1.4137837 -10.62297 0.93452746 9 10 1.6812926e+09
0.46067461 -9.6863737 1.1847116 50 11 1.6812926e+09
-1.4117612 -10.579539 0.18569359 8 8 1.6812926e+09
0.45266756 -9.6958466 0.50687373 54 9 1.6812926e+09
-1.3981405 -10.449803 -0.55253911 39 6 1.6812926e+09
0.44925639 -9.6953049 -0.16880839 52 7 1.6812926e+09
-0.92874575 -6.9183674 -0.85156852 9 4 1.6812926e+09
0.45051026 -9.7223501 -0.8467685 40 5 1.6812926e+09
-0.91909367 -6.810699 -1.3265979 19 2 1.6812926e+09
0.43832195 -9.3924189 -1.4854159 10 3 1.6812926e+09
-0.72406983 -5.3472757 -1.4355099 18 0 1.6812926e+09
0.30406389 -6.3808336 -1.4644632 25 1 1.6812926e+09
-1.4418235 -10.56581 2.4499435 40 14 1.6812926e+09
0.46284601 -9.6982784 2.5886958 50 15 1.6812926e+09
-1.436729 -10.528433 1.6736717 24 12 1.6812926e+09
0.44348031 -9.7184582 1.8825469 51 13 1.6812926e+09
-1.4484931 -10.600698 0.93300223 11 10 1.6812926e+09
0.42697045 -9.690403 1.1850159 51 11 1.6812926e+09
-1.4500406 -10.584452 0.18586811 30 8 1.6812926e+09
0.41947335 -9.7123327 0.50765878 60 9 1.6812926e+09
-1.4373295 -10.464644 -0.55358928 39 6 1.6812926e+09
0.41551894 -9.6993113 -0.16885203 90 7 1.6812926e+09
-1.4476495 -10.499002 -1.2951508 1 4 1.6812926e+09
0.41689348 -9.731328 -0.84742081 40 5 1.6812926e+09
-0.93679005 -6.7636919 -1.318027 17 2 1.6812926e+09
0.40510276 -9.3840246 -1.4838499 11 3 1.6812926e+09
-0.74406362 -5.3542829 -1.4380965 15 0 1.6812926e+09
0.2817888 -6.381856 -1.4644632 25 1 1.6812926e+09
-1.46483 -10.461799 2.4269209 41 14 1.6812926e+09
0.42942137 -9.7094851 2.5912805 49 15 1.6812926e+09
-1.4727857 -10.518462 1.6728913 33 12 1.6812926e+09
0.40944934 -9.717494 1.8820702 48 13 1.6812926e+09
-1.4629861 -10.435266 0.9188394 10 10 1.6812926e+09
0.39534447 -9.7041607 1.186537 50 11 1.6812926e+09
-1.4848887 -10.564475 0.18560635 41 8 1.6812926e+09
0.38566864 -9.7162323 0.50778955 51 9 1.6812926e+09
-1.4766394 -10.479341 -0.55463952 40 6 1.6812926e+09
0.38225609 -9.7156887 -0.1691138 49 7 1.6812926e+09
-1.484637 -10.496342 -1.295455 37 4 1.6812926e+09
0.38361585 -9.7501459 -0.84894305 40 5 1.6812926e+09
-0.95437878 -6.726531 -1.3113606 16 2 1.6812926e+09
0.37418103 -9.3902502 -1.4846328 11 3 1.6812926e+09
-0.76309055 -5.3540435 -1.4387431 16 0 1.6812926e+09
0.25971165 -6.3876686 -1.4655862 25 1 1.6812926e+09
-1.5029767 -10.480998 2.4325364 46 14 1.6812926e+09
0.39762068 -9.7205086 2.5938654 51 15 1.6812926e+09
-1.503798 -10.486634 1.6685988 44 12 1.6812926e+09
0.37789723 -9.7359638 1.8854064 50 13 1.6812926e+09
-1.5047249 -10.467072 0.92210776 43 10 1.6812926e+09
0.36230993 -9.7277994 1.1892753 58 11 1.6812926e+09
-1.5102878 -10.492694 0.1844283 39 8 1.6812926e+09
0.35427365 -9.739912 0.50896716 66 9 1.6812926e+09
-1.5142374 -10.494153 -0.55568969 39 6 1.6812926e+09
0.34888405 -9.7319517 -0.1693756 65 7 1.6812926e+09
-1.5215724 -10.506096 -1.2972804 35 4 1.6812926e+09
0.3516444 -9.7613192 -0.84981281 40 5 1.6812926e+09
-0.97608364 -6.7110157 -1.3089799 16 2 1.6812926e+09
0.34121886 -9.3865643 -1.4838499 10 3 1.6812926e+09
-0.78492373 -5.3728523 -1.4445628 14 0 1.6812926e+09
0.238528 -6.388495 -1.4655862 25 1 1.6812926e+09
-1.5434537 -10.5022 2.4387131 47 14 1.6812926e+09
0.36432746 -9.7387295 2.5983889 50 15 1.6812926e+09
-1.5432696 -10.500867 1.6717206 48 12 1.6812926e+09
0.34434897 -9.7494869 1.8877895 49 13 1.6812926e+09
-1.5426931 -10.484201 0.92406875 65 10 1.6812926e+09
0.32886055 -9.7438831 1.1911006 51 11 1.6812926e+09
-1.5469047 -10.487358 0.1844283 44 8 1.6812926e+09
0.32077208 -9.7560606 0.50975221 51 9 1.6812926e+09
-1.5552466 -10.518441 -0.55726504 39 6 1.6812926e+09
0.3154031 -9.7481003 -0.16963737 51 7 1.6812926e+09
-1.5618825 -10.525265 -1.3003229 35 4 1.6812926e+09
0.31627357 -9.7749882 -0.85090011 40 5 1.6812926e+09
-0.99769181 -6.6954308 -1.3065989 16 2 1.6812926e+09
0.30845153 -9.3876972 -1.4838499 10 3 1.6812926e+09
-0.80618107 -5.386797 -1.4490892 15 0 1.6812926e+09
0.21519512 -6.3917608 -1.4661478 25 1 1.6812926e+09
-1.5833712 -10.518431 2.4437668 48 14 1.6812926e+09
0.33066282 -9.7495975 2.6009736 50 15 1.6812926e+09
-1.5835948 -10.519832 1.6756228 50 12 1.6812926e+09
0.31079018 -9.7653475 1.890649 49 13 1.6812926e+09
-1.587433 -10.520338 0.92777288 58 10 1.6812926e+09
0.29522711 -9.7573738 1.1926218 55 11 1.6812926e+09
-1.588326 -10.501388 0.18477733 49 8 1.6812926e+09
0.28545657 -9.7721434 0.51053727 54 9 1.6812926e+09
-1.5960356 -10.527478 -0.55805266 39 6 1.6812926e+09
0.28181362 -9.7641325 -0.16989917 56 7 1.6812926e+09
-1.6038117 -10.541548 -1.303061 37 4 1.6812926e+09
0.28244263 -9.7859907 -0.85176992 41 5 1.6812926e+09
-1.0151242 -6.65309 -1.2989804 18 2 1.6812926e+09
0.27545947 -9.3813143 -1.4826753 10 3 1.6812926e+09
-0.82351345 -5.3744025 -1.4465026 16 0 1.6812926e+09
0.19250619 -6.3802986 -1.4633402 24 1 1.6812926e+09
-1.630093 -10.565521 2.4561203 50 14 1.6812926e+09
0.29537153 -9.7652254 2.6048508 48 15 1.6812926e+09
-1.6289258 -10.557885 1.6826469 49 12 1.6812926e+09
0.27506655 -9.7688742 1.8911257 43 13 1.6812926e+09
-1.625288 -10.522118 0.92842656 64 10 1.6812926e+09
0.26033512 -9.7906361 1.196577 46 11 1.6812926e+09
-1.6272701 -10.510601 0.18503913 48 8 1.6812926e+09
0.25153977 -9.7805681 0.51092976 44 9 1.6812926e+09
-1.6358396 -10.541579 -0.55910289 38 6 1.6812926e+09
0.24818066 -9.7825489 -0.17020458 50 7 1.6812926e+09
-1.6448028 -10.562855 -1.3064077 35 4 1.6812926e+09
0.248796 -9.8068342 -0.8535096 40 5 1.6812926e+09
-1.0372241 -6.6347766 -1.2961234 17 2 1.6812926e+09
0.23331717 -9.0860634 -1.4356933 11 3 1.6812926e+09
-0.84301835 -5.3762665 -1.4477959 16 0 1.6812926e+09
0.17030036 -6.3833671 -1.4639016 26 1 1.6812926e+09
-1.6646823 -10.54533 2.4527514 46 14 1.6812926e+09
0.26161149 -9.7782698 2.6080821 49 15 1.6812926e+09
-1.6661553 -10.554574 1.683037 51 12 1.6812926e+09
0.24127349 -9.7820406 1.8935086 49 13 1.6812926e+09
-1.6678448 -10.553279 0.93169487 55 10 1.6812926e+09
0.22604091 -9.7865238 1.1959684 51 11 1.6812926e+09
-1.6729527 -10.561639 0.18604264 51 8 1.6812926e+09
0.21751092 -9.7863779 0.51119143 50 9 1.6812926e+09
-1.6777202 -10.567857 -0.56080943 39 6 1.6812926e+09
0.21431087 -9.7958508 -0.17042273 54 7 1.6812926e+09
-1.6843992 -10.574203 -1.3085374 34 4 1.6812926e+09
0.21467353 -9.812623 -0.85394454 40 5 1.6812926e+09
-1.0704695 -6.6941233 -1.3085036 16 2 1.6812926e+09
0.20792957 -9.3657646 -1.4799347 11 3 1.6812926e+09
-0.86254632 -5.3780599 -1.4490892 16 0 1.6812926e+09
0.14790073 -6.3790517 -1.4627786 25 1 1.6812926e+09
-1.7030365 -10.549074 2.4549973 44 14 1.6812926e+09
0.22770666 -9.7887802 2.6106668 50 15 1.6812926e+09
-1.7061391 -10.568195 1.6861589 48 12 1.6812926e+09
0.20739189 -9.7950916 1.8958915 49 13 1.6812926e+09
-1.7058657 -10.554769 0.93234861 63 10 1.6812926e+09
0.19237623 -9.8120632 1.1990108 50 11 1.6812926e+09
-1.7098094 -10.555735 0.18604264 49 8 1.6812926e+09
0.18354049 -9.7970619 0.51171482 46 9 1.6812926e+09
-1.7186035 -10.586579 -0.56212223 39 6 1.6812926e+09
0.18030411 -9.8065357 -0.17059726 47 7 1.6812926e+09
-1.7252929 -10.59275 -1.3115798 35 4 1.6812926e+09
0.18079531 -9.8332338 -0.8556841 40 5 1.6812926e+09
-1.1037452 -6.750895 -1.3204077 16 2 1.6812926e+09
0.17533049 -9.3713713 -1.4807178 10 3 1.6812926e+09
-0.87974793 -5.3654842 -1.4465026 16 0 1.6812926e+09
0.12543382 -6.3697867 -1.4605325 24 1 1.6812926e+09
-1.7450109 -10.574311 2.4622972 47 14 1.6812926e+09
0.19373161 -9.7991734 2.6132514 50 15 1.6812926e+09
-1.7470433 -10.586539 1.6900611 43 12 1.6812926e+09
0.17337756 -9.8055716 1.8977979 49 13 1.6812926e+09
-1.7491996 -10.588063 0.93583483 46 10 1.6812926e+09
0.15816572 -9.815156 1.1993151 54 11 1.6812926e+09
-1.7511407 -10.576827 0.18652259 46 8 1.6812926e+09
0.14953732 -9.8101234 0.51236898 63 9 1.6812926e+09
-1.7596374 -10.605144 -0.56343496 39 6 1.6812926e+09
0.14618699 -9.8146029 -0.17072815 56 7 1.6812926e+09
-1.7655207 -10.606243 -1.3140137 34 4 1.6812926e+09
0.14654632 -9.8387842 -0.85611904 41 5 1.6812926e+09
-1.1167718 -6.6840663 -1.3080275 17 2 1.6812926e+09
0.14250089 -9.3645201 -1.4795433 10 3 1.6812926e+09
-0.89967108 -5.3695254 -1.4484425 16 0 1.6812926e+09
0.10315711 -6.3677502 -1.459971 25 1 1.6812926e+09
-1.7847496 -10.58497 2.4662278 46 14 1.6812926e+09
0.15972726 -9.8118639 2.6164825 47 15 1.6812926e+09
-1.7868632 -10.597421 1.6927927 47 12 1.6812926e+09
0.13932854 -9.8183851 1.9001808 46 13 1.6812926e+09
-1.7886374 -10.596626 0.93714213 44 10 1.6812926e+09
0.12409835 -9.8305359 1.2011405 50 11 1.6812926e+09
-1.7913885 -10.590366 0.18687163 46 8 1.6812926e+09
0.11550619 -9.8280611 0.51328486 50 9 1.6812926e+09
-1.8004041 -10.621089 -0.56461644 39 6 1.6812926e+09
0.1122234 -9.8400488 -0.17116447 47 7 1.6812926e+09
-1.8083621 -10.634263 -1.3182731 34 4 1.6812926e+09
0.11237899 -9.8541784 -0.85742378 41 5 1.6812926e+09
-1.1363752 -6.6583548 -1.3037419 16 2 1.6812926e+09
0.10984191 -9.3674288 -1.4799347 11 3 1.6812926e+09
-0.91800058 -5.3639722 -1.4477959 16 0 1.6812926e+09
0.080896147 -6.3656354 -1.4594095 24 1 1.6812926e+09
-1.8274807 -10.612287 2.4740891 46 14 1.6812926e+09
0.12586088 -9.8413391 2.6242371 47 15 1.6812926e+09
-1.8292972 -10.622754 1.6978656 51 12 1.6812926e+09
0.10530186 -9.8408985 1.9044702 50 13 1.6812926e+09
-1.8298506 -10.614861 0.93932104 44 10 1.6812926e+09
0.089949362 -9.848279 1.2032702 56 11 1.6812926e+09
-1.8309003 -10.598828 0.18713342 44 8 1.6812926e+09
0.081373438 -9.8483753 0.51433158 59 9 1.6812926e+09
-1.8408775 -10.634419 -0.56566668 38 6 1.6812926e+09
0.077958301 -9.850378 -0.17133899 49 7 1.6812926e+09
-1.849721 -10.652335 -1.3213155 33 4 1.6812926e+09
0.078085139 -9.8669634 -0.85851103 41 5 1.6812926e+09
-1.1655177 -6.6881948 -1.3104082 17 2 1.6812926e+09
0.076862693 -9.3356571 -1.4748449 10 3 1.6812926e+09
-0.93880093 -5.3726287 -1.4510289 16 0 1.6812926e+09
0.058626965 -6.3610072 -1.4582864 24 1 1.6812926e+09
-1.8700018 -10.637033 2.481389 44 14 1.6812926e+09
0.091578245 -9.8489647 2.6261756 49 15 1.6812926e+09
-1.870218 -10.638191 1.7013776 47 12 1.6812926e+09
0.071063131 -9.8559303 1.9073298 48 13 1.6812926e+09
-1.8703486 -10.628031 0.94106412 46 10 1.6812926e+09
0.057384349 -9.8634119 1.2050958 49 11 1.6812926e+09
-1.8739686 -10.626834 0.18774424 46 8 1.6812926e+09
0.047021843 -9.8535929 0.51459324 50 9 1.6812926e+09
-1.8840749 -10.662346 -0.56750453 39 6 1.6812926e+09
0.043634661 -9.8630877 -0.17155714 50 7 1.6812926e+09
-1.8903607 -10.665359 -1.3237493 33 4 1.6812926e+09
0.043715563 -9.8821192 -0.85981584 41 5 1.6812926e+09
-1.1898398 -6.6963749 -1.3127892 17 2 1.6812926e+09
0.046024352 -9.3580828 -1.4783686 10 3 1.6812926e+09
-0.9583987 -5.3740735 -1.4523222 16 0 1.6812926e+09
0.036328163 -6.3465567 -1.4549173 23 1 1.6812926e+09
-1.9082761 -10.647558 2.4853199 50 14 1.6812926e+09
0.059104543 -9.8781929 2.63393 51 15 1.6812926e+09
-1.9098452 -10.656238 1.7052799 51 12 1.6812926e+09
0.038497087 -9.8831072 1.9125723 47 13 1.6812926e+09
-1.9127231 -10.650851 0.9436788 46 10 1.6812926e+09
0.022981985 -9.873476 1.2063125 48 11 1.6812926e+09
-1.9118541 -10.635323 0.18800604 46 8 1.6812926e+09
0.01440341 -9.8836546 0.51616335 48 9 1.6812926e+09
-1.9225225 -10.673238 -0.56842345 40 6 1.6812926e+09
0.009223246 -9.8756781 -0.1717753 49 7 1.6812926e+09
-1.9301335 -10.683449 -1.3267919 34 4 1.6812926e+09
0.010956769 -9.8896799 -0.86046815 41 5 1.6812926e+09
-1.2158377 -6.7066689 -1.3156462 17 2 1.6812926e+09
0.013325086 -9.3409023 -1.475628 10 3 1.6812926e+09
-0.97758496 -5.3730712 -1.4529688 16 0 1.6812926e+09
0.015259065 -6.339334 -1.4532326 23 1 1.6812926e+09
-1.9506934 -10.669588 2.492058 46 14 1.6812926e+09
0.024608521 -9.8735085 2.6326375 50 15 1.6812926e+09
-1.9510313 -10.671367 1.708792 49 12 1.6812926e+09
0.0040026582 -9.8880892 1.9135255 46 13 1.6812926e+09
-1.9529679 -10.671396 0.94607556 48 10 1.6812926e+09
-0.011489949 -9.8834229 1.2075295 44 11 1.6812926e+09
-1.9543815 -10.658086 0.18852961 58 8 1.6812926e+09
-0.020089226 -9.8786507 0.51590168 48 9 1.6812926e+09
-1.9656374 -10.698382 -0.57013005 39 6 1.6812926e+09
-0.025333123 -9.9156437 -0.1724734 51 7 1.6812926e+09
-1.9714648 -10.698609 -1.32953 32 4 1.6812926e+09
-0.025342956 -9.9145594 -0.86264265 40 5 1.6812926e+09
-1.2584544 -6.8061523 -1.3361213 18 2 1.6812926e+09
-0.019300221 -9.3532372 -1.4775856 10 3 1.6812926e+09
-0.99721718 -5.3743744 -1.4542621 15 0 1.6812926e+09
-0.00796693 -6.3222938 -1.449302 23 1 1.6812926e+09
-1.9937348 -10.693846 2.4993579 44 14 1.6812926e+09
-0.0098616667 -9.8831949 2.6352224 47 15 1.6812926e+09
-1.9923462 -10.686337 1.7123039 46 12 1.6812926e+09
-0.030532517 -9.8954067 1.9149554 49 13 1.6812926e+09
-1.9943558 -10.676407 0.94716501 46 10 1.6812926e+09
-0.046062216 -9.900691 1.2096592 47 11 1.6812926e+09
-1.9971141 -10.670507 0.18887867 50 8 1.6812926e+09
-0.056387663 -9.8959866 0.51681757 52 9 1.6812926e+09
-2.0075989 -10.705828 -0.57091767 40 6 1.6812926e+09
-0.059847306 -9.8979979 -0.17216797 46 7 1.6812926e+09
-2.0152538 -10.715697 -1.3325723 33 4 1.6812926e+09
-0.060020618 -9.9268618 -0.86372989 40 5 1.6812926e+09
-1.28266 -6.8041301 -1.3365974 19 2 1.6812926e+09
-0.051986489 -9.3605213 -1.4787602 11 3 1.6812926e+09
-1.0155215 -5.3684878 -1.4536155 16 0 1.6812926e+09
-0.030035807 -6.322228 -1.449302 25 1 1.6812926e+09
-2.0370173 -10.708005 2.5044117 46 14 1.6812926e+09
-0.046135902 -9.8951674 2.6384535 48 15 1.6812926e+09
-2.0342712 -10.693519 1.7146453 51 12 1.6812926e+09
-0.066816203 -9.8976822 1.9154319 47 13 1.6812926e+09
-2.0381391 -10.703632 0.95021552 42 10 1.6812926e+09
-0.080717072 -9.9128761 1.2111804 46 11 1.6812926e+09
-2.0395055 -10.690476 0.18935859 47 8 1.6812926e+09
-0.090996109 -9.9032183 0.51721007 48 9 1.6812926e+09
-2.0510552 -10.730632 -0.57262427 39 6 1.6812926e+09
-0.094442777 -9.9027281 -0.17225525 49 7 1.6812926e+09
-2.0540469 -10.726015 -1.334702 32 4 1.6812926e+09
-0.094761886 -9.9365549 -0.86459976 39 5 1.6812926e+09
-1.3124307 -6.8309417 -1.3427876 19 2 1.6812926e+09
-0.084491558 -9.3405294 -1.475628 10 3 1.6812926e+09
-1.0351707 -5.3696532 -1.4549088 17 0 1.6812926e+09
-0.051903207 -6.2952881 -1.4431251 22 1 1.6812926e+09
-2.0771511 -10.725107 2.5100272 47 14 1.6812926e+09
-0.079003587 -9.9022064 2.6403923 47 15 1.6812926e+09
-2.0744205 -10.710958 1.7185476 46 12 1.6812926e+09
-0.099779077 -9.9121304 1.9182914 49 13 1.6812926e+09
-2.0759943 -10.709039 0.95130497 46 10 1.6812926e+09
-0.11391632 -9.9423304 1.2148314 54 11 1.6812926e+09
-2.0787611 -10.703285 0.18970765 46 8 1.6812926e+09
-0.12401627 -9.917841 0.51799512 56 9 1.6812926e+09
-2.0899682 -10.740925 -0.57354319 39 6 1.6812926e+09
-0.1273738 -9.9098587 -0.17238612 48 7 1.6812926e+09
-2.0957818 -10.750806 -1.3386571 30 4 1.6812926e+09
-0.12798992 -9.9585981 -0.86655682 40 5 1.6812926e+09
-1.3454521 -6.8795385 -1.3532633 17 2 1.6812926e+09
-0.11555331 -9.3476048 -1.4768025 13 3 1.6812926e+09
-1.0539029 -5.3709297 -1.4562019 18 0 1.6812926e+09
-0.072857931 -6.3023896 -1.4448098 18 1 1.6812926e+09
-2.1169488 -10.739671 2.5150807 46 14 1.6812926e+09
-0.11202297 -9.9187927 2.6449156 48 15 1.6812926e+09
-2.1161408 -10.735513 1.7236204 43 12 1.6812926e+09
-0.13274342 -9.9191065 1.9197212 46 13 1.6812926e+09
-2.1196966 -10.743631 0.95500904 48 10 1.6812926e+09
-0.1485849 -9.9393911 1.2145271 47 11 1.6812926e+09
-2.1195788 -10.723308 0.19018759 43 8 1.6812926e+09
-0.15709604 -9.9298573 0.51864928 46 9 1.6812926e+09
-2.1304288 -10.758426 -0.57485598 39 6 1.6812926e+09
-0.16051021 -9.926877 -0.17269155 46 7 1.6812926e+09
-2.136682 -10.760463 -1.3407868 30 4 1.6812926e+09
-0.16120872 -9.9705696 -0.86764413 39 5 1.6812926e+09
-1.3824195 -6.9397845 -1.3661196 17 2 1.6812926e+09
-0.14810601 -9.3422079 -1.4760196 11 3 1.6812926e+09
-1.0731285 -5.3745089 -1.4581419 16 0 1.6812926e+09
-0.093343742 -6.272882 -1.4380714 17 1 1.6812926e+09
-2.1616218 -10.768041 2.5235038 51 14 1.6812926e+09
-0.1468527 -9.9328299 2.6487927 46 15 1.6812926e+09
-2.1574931 -10.747428 1.7267423 43 12 1.6812926e+09
-0.1678499 -9.9480286 1.9254403 50 13 1.6812926e+09
-2.1606231 -10.753258 0.95653427 46 10 1.6812926e+09
-0.18368039 -9.9611406 1.2172652 51 11 1.6812926e+09
-2.1624274 -10.742797 0.19066754 46 8 1.6812926e+09
-0.19236849 -9.9616985 0.52035022 49 9 1.6812926e+09
-2.1719205 -10.7705 -0.57590616 38 6 1.6812926e+09
-0.19525646 -9.9312544 -0.17277882 44 7 1.6812926e+09
-2.1796439 -10.779691 -1.3441335 30 4 1.6812926e+09
-0.19615497 -9.9774179 -0.8682965 39 5 1.6812926e+09
-1.4120085 -6.9613733 -1.3713576 17 2 1.6812926e+09
-0.18066895 -9.3391647 -1.475628 11 3 1.6812926e+09
-1.0933281 -5.3778296 -1.4600818 16 0 1.6812926e+09
-0.11523963 -6.2725182 -1.4380714 18 1 1.6812926e+09
-2.2044945 -10.776752 2.5274343 50 14 1.6812926e+09
-0.18364808 -9.9539566 2.6546085 46 15 1.6812926e+09
-2.204299 -10.775736 1.7325956 55 12 1.6812926e+09
-0.20465489 -9.9645214 1.9287764 46 13 1.6812926e+09
-2.2070203 -10.779425 0.95958477 50 10 1.6812926e+09
-0.22056447 -9.977766 1.2193949 49 11 1.6812926e+09
-2.2068131 -10.759284 0.19110385 46 8 1.6812926e+09
-0.22910346 -9.9709091 0.52087355 46 9 1.6812926e+09
-2.2174163 -10.791812 -0.57748145 39 6 1.6812926e+09
-0.23228365 -9.9579611 -0.17325875 44 7 1.6812926e+09
-2.2246506 -10.798363 -1.3474802 30 4 1.6812926e+09
-0.23329207 -10.00153 -0.87047106 40 5 1.6812926e+09
-1.436519 -6.9513445 -1.3704052 16 2 1.6812926e+09
-0.21489747 -9.3384399 -1.475628 10 3 1.6812926e+09
-1.1140126 -5.3785157 -1.4613751 15 0 1.6812926e+09
-0.13791756 -6.2574401 -1.4347023 18 1 1.6812926e+09
-2.2480621 -10.797612 2.5341725 47 14 1.6812926e+09
-0.21885931 -9.9749861 2.6604245 48 15 1.6812926e+09
-2.2449219 -10.782481 1.734937 48 12 1.6812926e+09
-0.23989886 -9.9833746 1.9325893 48 13 1.6812926e+09
-2.2487016 -10.791159 0.96132785 46 10 1.6812926e+09
-0.25570378 -9.9893389 1.2209162 52 11 1.6812926e+09
-2.248446 -10.77109 0.19145288 49 8 1.6812926e+09
-0.26449126 -9.9925098 0.5220511 50 9 1.6812926e+09
-2.2606983 -10.810886 -0.57892549 39 6 1.6812926e+09
-0.26776654 -9.9845762 -0.1737387 49 7 1.6812926e+09
-2.2669163 -10.812388 -1.3502182 29 4 1.6812926e+09
-0.26859629 -10.015594 -0.87177581 40 5 1.6812926e+09
-1.460775 -6.9462876 -1.3704052 15 2 1.6812926e+09
-0.24723659 -9.3277597 -1.474062 11 3 1.6812926e+09
-1.1282914 -5.3533287 -1.4555554 16 0 1.6812926e+09
-0.15969889 -6.2544851 -1.4341407 18 1 1.6812926e+09
-2.2887707 -10.803998 2.5375419 48 14 1.6812926e+09
-0.25421959 -9.9958887 2.6662402 48 15 1.6812926e+09
-2.2897165 -10.808398 1.7404001 42 12 1.6812926e+09
-0.27487868 -9.9873829 1.9335425 44 13 1.6812926e+09
-2.2915254 -10.807605 0.9635067 44 10 1.6812926e+09
-0.29078463 -9.9958267 1.2218289 46 11 1.6812926e+09
-2.2912273 -10.787625 0.1918892 47 8 1.6812926e+09
-0.2997382 -10.004004 0.52270538 46 9 1.6812926e+09
-2.3031008 -10.824904 -0.58010697 39 6 1.6812926e+09
-0.30299053 -9.9960728 -0.17395686 49 7 1.6812926e+09
-2.3129334 -10.843237 -1.3550861 30 4 1.6812926e+09
-0.30400151 -10.029531 -0.87308049 40 5 1.6812926e+09
-1.466508 -6.8547535 -1.3532633 15 2 1.6812926e+09
-0.27994066 -9.3317747 -1.4748449 14 3 1.6812926e+09
-1.1444358 -5.3375516 -1.4523222 15 0 1.6812926e+09
-0.18146127 -6.2514544 -1.4335792 19 1 1.6812926e+09
-2.3352005 -10.836426 2.5470879 44 14 1.6812926e+09
-0.28945369 -10.007011 2.6694713 47 15 1.6812926e+09
-2.3321159 -10.822064 1.7439121 44 12 1.6812926e+09
-0.31048891 -10.010893 1.9383084 46 13 1.6812926e+09
-2.3334408 -10.819016 0.96524984 46 10 1.6812926e+09
-0.32607317 -10.007152 1.22335 50 11 1.6812926e+09
-2.3352079 -10.80888 0.19241276 46 8 1.6812926e+09
-0.33506852 -10.015372 0.52335954 49 9 1.6812926e+09
-2.347214 -10.84608 -0.58168226 39 6 1.6812926e+09
-0.33846468 -10.012443 -0.17426227 51 7 1.6812926e+09
-2.3549812 -10.854498 -1.35752 30 4 1.6812926e+09
-0.33967334 -10.048323 -0.87482017 40 5 1.6812926e+09
-1.4930387 -6.8615828 -1.3556441 18 2 1.6812926e+09
-0.31243151 -9.3282738 -1.4744536 11 3 1.6812926e+09
-1.1615144 -5.3264465 -1.4503825 15 0 1.6812926e+09
-0.20343655 -6.2556529 -1.4347023 21 1 1.6812926e+09
-2.374578 -10.835347 2.5487723 44 14 1.6812926e+09
-0.32469139 -10.015594 2.6720562 49 15 1.6812926e+09
-2.3767545 -10.845216 1.7489851 47 12 1.6812926e+09
-0.34568208 -10.017107 1.9397383 47 13 1.6812926e+09
-2.3802691 -10.852159 0.96895391 42 10 1.6812926e+09
-0.36135599 -10.015873 1.2245671 50 11 1.6812926e+09
-2.3772182 -10.820194 0.19276182 44 8 1.6812926e+09
-0.37048191 -10.026616 0.52401376 50 9 1.6812926e+09
-2.3898921 -10.859762 -0.58286375 38 6 1.6812926e+09
-0.37562218 -10.023623 -0.17448042 47 7 1.6812926e+09
-2.399811 -10.877711 -1.3614752 30 4 1.6812926e+09
-0.37677637 -10.054476 -0.87547249 40 5 1.6812926e+09
-1.5143272 -6.8443489 -1.3532633 18 2 1.6812926e+09
-0.34490132 -9.3246584 -1.474062 14 3 1.6812926e+09
-1.175266 -5.2962222 -1.4432695 13 0 1.6812926e+09
-0.22498262 -6.2159119 -1.4257178 22 1 1.6812926e+09
-2.4208686 -10.865035 2.5577569 44 14 1.6812926e+09
-0.36024922 -10.031296 2.6765795 51 15 1.6812926e+09
-2.419971 -10.860952 1.7528871 46 12 1.6812926e+09
-0.38119861 -10.030552 1.9425977 49 13 1.6812926e+09
-2.4221997 -10.853085 0.96982551 44 10 1.6812926e+09
-0.3970916 -10.034385 1.227001 49 11 1.6812926e+09
-2.4266829 -10.855316 0.19354719 46 8 1.6812926e+09
-0.40762961 -10.03517 0.52453709 54 9 1.6812926e+09
-2.4373214 -10.885036 -0.5847016 39 6 1.6812926e+09
-0.41091242 -10.029744 -0.17461132 56 7 1.6812926e+09
-2.445102 -10.893053 -1.3645176 29 4 1.6812926e+09
-0.41227403 -10.063053 -0.8763423 40 5 1.6812926e+09
-1.557618 -6.9252148 -1.3704052 18 2 1.6812926e+09
-0.37685642 -9.3085947 -1.4717129 14 3 1.6812926e+09
-1.193746 -5.2920876 -1.4432695 15 0 1.6812926e+09
-0.2467736 -6.2175226 -1.4262793 22 1 1.6812926e+09
-2.4666028 -10.882223 2.5639336 52 14 1.6812926e+09
-0.39720213 -10.034735 2.6778719 48 15 1.6812926e+09
-2.468502 -10.890541 1.7591307 54 12 1.6812926e+09
-0.41836414 -10.038897 1.9445041 48 13 1.6812926e+09
-2.4655826 -10.868851 0.97200447 46 10 1.6812926e+09
-0.43274954 -10.047813 1.2288264 47 11 1.6812926e+09
-2.4689937 -10.866278 0.19389622 46 8 1.6812926e+09
-0.44363651 -10.056134 0.5257147 51 9 1.6812926e+09
-2.4802918 -10.898371 -0.58588308 39 6 1.6812926e+09
-0.44679946 -10.048226 -0.17496036 48 7 1.6812926e+09
-2.4902906 -10.9159 -1.3684727 27 4 1.6812926e+09
-0.44827417 -10.081457 -0.87808192 40 5 1.6812926e+09
-1.5620724 -6.8336105 -1.3532633 17 2 1.6812926e+09
-0.40891808 -9.2973547 -1.4701468 14 3 1.6812926e+09
-1.2219383 -5.330255 -1.4549088 15 0 1.6812926e+09
-0.26878521 -6.2239256 -1.427964 21 1 1.6812926e+09
-2.507597 -10.89535 2.5689874 44 14 1.6812926e+09
-0.43170506 -10.062316 2.6856263 54 15 1.6812926e+09
-2.5090368 -10.901547 1.7622527 48 12 1.6812926e+09
-0.45241633 -10.054617 1.9478402 51 13 1.6812926e+09
-2.5124643 -10.899006 0.97549069 49 10 1.6812926e+09
-0.468849 -10.068551 1.2315646 49 11 1.6812926e+09
-2.5134485 -10.894565 0.19455069 52 8 1.6812926e+09
-0.47768438 -10.069569 0.52649969 55 9 1.6812926e+09
-2.5197933 -10.90468 -0.58667076 39 6 1.6812926e+09
-0.48293921 -10.069077 -0.17535304 57 7 1.6812926e+09
-2.5303974 -10.924503 -1.3706024 27 4 1.6812926e+09
-0.482645 -10.099817 -0.8798216 41 5 1.6812926e+09
-1.5725766 -6.7707448 -1.3418353 17 2 1.6812926e+09
-0.4421806 -9.3131371 -1.4728874 16 3 1.6812926e+09
-1.2443769 -5.3424196 -1.4594351 15 0 1.6812926e+09
