# .PCD v0.7 - Point Cloud Data file format
VERSION 0.7
FIELDS x y z intensity ring timestamp
SIZE 4 4 4 4 2 8
TYPE F F F F U F
COUNT 1 1 1 1 1 1
WIDTH 960
HEIGHT 1
VIEWPOINT 0 0 0 1 0 0 0
POINTS 960
DATA ascii
8.8462009 2.2895737 -1.7660991 8 2 1.6812914e+09
7.0658302 3.2747688 -1.2293638 7 3 1.6812914e+09
6.3632312 1.6438918 -1.7504169 9 0 1.6812914e+09
6.9987326 3.2539659 -1.7710571 9 1 1.6812914e+09
10.652947 2.7409718 2.5274343 76 14 1.6812914e+09
10.65677 4.9551096 3.135385 79 15 1.6812914e+09
10.484538 2.6976566 1.7052799 11 12 1.6812914e+09
10.650012 4.9249244 2.2719243 75 13 1.6812914e+09
10.67334 2.7442105 0.96111 81 10 1.6812914e+09
10.662237 4.9125605 1.4351013 79 11 1.6812914e+09
10.025698 2.5740669 0.1800652 25 8 1.6812914e+09
10.662005 4.8989415 0.61311573 76 9 1.6812914e+09
10.014329 2.5674243 -0.54177451 35 6 1.6812914e+09
10.122485 4.6465178 -0.19380896 8 7 1.6812914e+09
8.9550571 2.2910509 -1.1290357 16 4 1.6812914e+09
10.153671 4.6608357 -0.97245723 8 5 1.6812914e+09
8.8394766 2.2565861 -1.763242 8 2 1.6812914e+09
7.067678 3.247191 -1.2277976 1 3 1.6812914e+09
6.3736115 1.6228606 -1.7517102 9 0 1.6812914e+09
7.0056243 3.2274745 -1.7699341 9 1 1.6812914e+09
10.654893 2.7038338 2.5257499 76 14 1.6812914e+09
10.659986 4.9136724 3.1315076 77 15 1.6812914e+09
10.653797 2.7035432 1.7314249 89 12 1.6812914e+09
10.650673 4.8824158 2.2685881 79 13 1.6812914e+09
10.673197 2.7044914 0.9602384 80 10 1.6812914e+09
10.661266 4.8670616 1.4326674 81 11 1.6812914e+09
10.56487 2.6750917 0.18962039 41 8 1.6812914e+09
10.66456 4.8573442 0.61233068 80 9 1.6812914e+09
10.618227 2.6846497 -0.57406831 76 6 1.6812914e+09
10.027171 4.5604019 -0.19167104 41 7 1.6812914e+09
8.9650106 2.2619488 -1.1293398 16 4 1.6812914e+09
10.08068 4.586875 -0.96397656 18 5 1.6812914e+09
8.8496809 2.226315 -1.7637182 8 2 1.6812914e+09
nan nan nan 0 3 1.6812914e+09
6.3722105 1.5988414 -1.7497703 9 0 1.6812914e+09
7.0162888 3.2042251 -1.7699341 9 1 1.6812914e+09
10.65954 2.6654437 2.5246267 79 14 1.6812914e+09
10.657307 4.8673944 3.1256919 77 15 1.6812914e+09
10.658379 2.6651406 1.7306445 42 12 1.6812914e+09
10.645308 4.8350506 2.2638223 75 13 1.6812914e+09
10.674857 2.667273 0.95958477 81 10 1.6812914e+09
10.664625 4.8236756 1.4308419 80 11 1.6812914e+09
10.576568 2.6388018 0.18966401 46 8 1.6812914e+09
10.66325 4.8118658 0.6112839 80 9 1.6812914e+09
10.646914 2.6523938 -0.57511848 62 6 1.6812914e+09
10.026291 4.5199285 -0.19136563 40 7 1.6812914e+09
8.9632187 2.2282484 -1.1281228 18 4 1.6812914e+09
10.035337 4.5239978 -0.95810527 34 5 1.6812914e+09
8.857398 2.1954105 -1.7637182 8 2 1.6812914e+09
10.05596 4.5374966 -1.7438172 36 3 1.6812914e+09
6.3798218 1.5782809 -1.7504169 9 0 1.6812914e+09
7.0252123 3.1787086 -1.7693726 9 1 1.6812914e+09
10.659317 2.6258893 2.5223806 81 14 1.6812914e+09
10.652233 4.8201985 3.1192298 77 15 1.6812914e+09
10.662819 2.6267388 1.729864 60 12 1.6812914e+09
10.644221 4.7897983 2.2600093 77 13 1.6812914e+09
10.669593 2.626425 0.9582774 82 10 1.6812914e+09
10.661023 4.7772794 1.4281038 83 11 1.6812914e+09
10.602708 2.6060405 0.18996944 42 8 1.6812914e+09
10.659472 4.7654362 0.61010635 81 9 1.6812914e+09
10.619738 2.6062932 -0.57314938 32 6 1.6812914e+09
9.9940863 4.4634762 -0.19044937 40 7 1.6812914e+09
8.956481 2.1934087 -1.1262975 19 4 1.6812914e+09
10.035153 4.4818249 -0.95658308 36 5 1.6812914e+09
8.8530855 2.1615705 -1.7613373 8 2 1.6812914e+09
10.058215 4.4963155 -1.7414682 34 3 1.6812914e+09
6.378252 1.554288 -1.748477 9 0 1.6812914e+09
7.0340428 3.1531687 -1.768811 9 1 1.6812914e+09
10.661767 2.5850823 2.5206962 81 14 1.6812914e+09
10.658811 4.7761812 3.1159987 77 15 1.6812914e+09
10.660378 2.5847328 1.7279129 88 12 1.6812914e+09
10.650499 4.7457538 2.2576265 77 13 1.6812914e+09
10.664622 2.5837848 0.95697004 82 10 1.6812914e+09
10.660319 4.7301145 1.4256699 81 11 1.6812914e+09
10.651062 2.5765595 0.19066754 60 8 1.6812914e+09
10.667738 4.72229 0.60958302 80 9 1.6812914e+09
10.614657 2.5638375 -0.57236171 27 6 1.6812914e+09
9.9852381 4.4156861 -0.18996944 41 7 1.6812914e+09
8.9548101 2.1582429 -1.1250805 19 4 1.6812914e+09
10.033294 4.4369483 -0.95484346 38 5 1.6812914e+09
8.8609486 2.129108 -1.7613373 8 2 1.6812914e+09
10.243935 4.5344472 -1.7708319 29 3 1.6812914e+09
6.3862553 1.5314628 -1.7491236 9 0 1.6812914e+09
7.0411005 3.1253874 -1.7676879 9 1 1.6812914e+09
10.665986 2.5467193 2.519573 81 14 1.6812914e+09
10.655556 4.7301192 3.1101828 79 15 1.6812914e+09
10.662128 2.5457861 1.7267423 88 12 1.6812914e+09
10.653532 4.7025967 2.2547669 77 13 1.6812914e+09
10.661464 2.5436547 0.95588058 81 10 1.6812914e+09
10.658594 4.6848793 1.4232359 80 11 1.6812914e+09
10.664854 2.5405223 0.19075479 84 8 1.6812914e+09
10.663583 4.675992 0.60840547 80 9 1.6812914e+09
10.667262 2.5371614 -0.57472467 79 6 1.6812914e+09
9.9914331 4.3767881 -0.18979491 52 7 1.6812914e+09
8.9478025 2.1235363 -1.123255 16 4 1.6812914e+09
10.041878 4.3988972 -0.95419103 40 5 1.6812914e+09
8.8635483 2.0970352 -1.7603849 8 2 1.6812914e+09
10.352398 4.5393524 -1.7868842 28 3 1.6812914e+09
6.3939128 1.5097157 -1.7497703 9 0 1.6812914e+09
7.0497375 3.0998082 -1.7671264 11 1 1.6812914e+09
10.553862 2.4810596 2.4909351 62 14 1.6812914e+09
10.656529 4.6860843 3.1056595 79 15 1.6812914e+09
10.65893 2.5057294 1.7247912 86 12 1.6812914e+09
10.656392 4.6594758 2.2519073 76 13 1.6812914e+09
10.66543 2.5052853 0.95544481 81 10 1.6812914e+09
10.646776 4.6376061 1.4195851 80 11 1.6812914e+09
10.668789 2.5021391 0.19066754 90 8 1.6812914e+09
10.668392 4.6337638 0.60775131 81 9 1.6812914e+09
10.663899 2.4970663 -0.57406831 82 6 1.6812914e+09
9.981432 4.3309298 -0.18931496 57 7 1.6812914e+09
8.9479103 2.0905974 -1.1223423 18 4 1.6812914e+09
10.059456 4.36481 -0.95440859 38 5 1.6812914e+09
8.8537226 2.0637345 -1.7570518 8 2 1.6812914e+09
10.362866 4.5030279 -1.7861011 30 3 1.6812914e+09
6.3944383 1.4862952 -1.748477 9 0 1.6812914e+09
7.064981 3.0771296 -1.7682495 9 1 1.6812914e+09
10.087352 2.3361976 2.3786297 35 14 1.6812914e+09
10.65873 4.6449261 3.1017823 79 15 1.6812914e+09
10.046491 2.3267293 1.6241132 35 12 1.6812914e+09
10.647019 4.6133695 2.2466648 77 13 1.6812914e+09
10.186372 2.3553481 0.91164911 60 10 1.6812914e+09
10.656066 4.5974617 1.4186723 81 11 1.6812914e+09
10.662416 2.4633727 0.19040574 84 8 1.6812914e+09
10.665357 4.590457 0.60670453 79 9 1.6812914e+09
10.659957 2.4588859 -0.57341194 82 6 1.6812914e+09
9.9735279 4.2861824 -0.18887867 52 7 1.6812914e+09
8.9427042 2.0581334 -1.1208211 18 4 1.6812914e+09
10.044136 4.3186264 -0.9515816 32 5 1.6812914e+09
8.8656569 2.0339134 -1.7580042 9 2 1.6812914e+09
10.385324 4.4697585 -1.7872757 27 3 1.6812914e+09
6.3948789 1.4628896 -1.7471837 9 0 1.6812914e+09
7.0706735 3.0517509 -1.7671264 9 1 1.6812914e+09
10.088319 2.2993491 2.376945 39 14 1.6812914e+09
10.654926 4.5990705 3.0959666 77 15 1.6812914e+09
10.073813 2.2960331 1.6272351 38 12 1.6812914e+09
10.647274 4.5693951 2.2433286 77 13 1.6812914e+09
10.084848 2.2966886 0.90184402 30 10 1.6812914e+09
10.649235 4.550478 1.41563 80 11 1.6812914e+09
10.046947 2.2843692 0.1792362 29 8 1.6812914e+09
10.667538 4.5473204 0.60591948 80 9 1.6812914e+09
10.120668 2.2974029 -0.54387492 41 6 1.6812914e+09
9.9838295 4.249383 -0.18879139 40 7 1.6812914e+09
8.9425716 2.0252619 -1.1199083 18 4 1.6812914e+09
10.039278 4.2729969 -0.94962454 32 5 1.6812914e+09
8.8679152 2.001874 -1.7570518 8 2 1.6812914e+09
10.389509 4.4286346 -1.785318 20 3 1.6812914e+09
6.4070148 1.4421475 -1.7491236 9 0 1.6812914e+09
7.0818119 3.025815 -1.7671264 9 1 1.6812914e+09
10.084398 2.261457 2.3741374 39 14 1.6812914e+09
10.659814 4.5570984 3.0927355 77 15 1.6812914e+09
10.086584 2.2619345 1.6280154 38 12 1.6812914e+09
10.654126 4.528357 2.2414222 80 13 1.6812914e+09
10.078615 2.256448 0.90053666 38 10 1.6812914e+09
10.662769 4.5123091 1.4153258 53 11 1.6812914e+09
10.084528 2.2540684 0.17975979 38 8 1.6812914e+09
10.665735 4.5004196 0.60487282 79 9 1.6812914e+09
10.060792 2.24508 -0.54019916 49 6 1.6812914e+09
10.060781 4.240747 -0.18996944 16 7 1.6812914e+09
8.9596233 1.9946271 -1.1211253 20 4 1.6812914e+09
10.040364 4.2321177 -0.94831985 29 5 1.6812914e+09
8.8724527 1.9703753 -1.7565757 8 2 1.6812914e+09
10.40263 4.3913803 -1.7849267 20 3 1.6812914e+09
6.4025784 1.4176883 -1.7465372 9 0 1.6812914e+09
7.0811162 2.9963231 -1.7643188 9 1 1.6812914e+09
10.080723 2.2218609 2.3713298 36 14 1.6812914e+09
10.656432 4.5095196 3.0869195 77 15 1.6812914e+09
10.087573 2.223357 1.6268448 39 12 1.6812914e+09
10.657081 4.4835615 2.2385626 80 13 1.6812914e+09
10.081566 2.2201829 0.90010089 39 10 1.6812914e+09
10.632691 4.455862 1.409241 15 11 1.6812914e+09
10.080127 2.2161713 0.17954162 38 8 1.6812914e+09
10.667561 4.4573812 0.60408771 81 9 1.6812914e+09
10.078321 2.2120867 -0.54072428 40 6 1.6812914e+09
10.153937 4.2383714 -0.19145288 18 7 1.6812914e+09
8.988349 1.9681129 -1.1238635 8 4 1.6812914e+09
10.038991 4.1903224 -0.94679767 27 5 1.6812914e+09
8.8768778 1.9388695 -1.7560996 9 2 1.6812914e+09
10.422451 4.3569479 -1.7857096 18 3 1.6812914e+09
6.4145665 1.39687 -1.748477 9 0 1.6812914e+09
7.1005168 2.9753582 -1.7665648 8 1 1.6812914e+09
10.083274 2.1873877 2.3702068 36 14 1.6812914e+09
10.660192 4.4694824 3.0836885 81 15 1.6812914e+09
10.085237 2.1878006 1.6252838 39 12 1.6812914e+09
10.644712 4.4368558 2.2328436 76 13 1.6812914e+09
10.07465 2.1818178 0.89879364 38 10 1.6812914e+09
10.650472 4.4196715 1.4095451 14 11 1.6812914e+09
10.082535 2.1816757 0.17945436 39 8 1.6812914e+09
10.666138 4.4152918 0.60317189 79 9 1.6812914e+09
10.07828 2.1770735 -0.54033047 39 6 1.6812914e+09
10.25182 4.2373095 -0.19302359 22 7 1.6812914e+09
8.9826956 1.9356843 -1.1223423 42 4 1.6812914e+09
10.041325 4.152245 -0.94571036 26 5 1.6812914e+09
8.885993 1.9083866 -1.7565757 11 2 1.6812914e+09
10.430752 4.3177037 -1.7845351 16 3 1.6812914e+09
6.4123201 1.3729557 -1.7465372 9 0 1.6812914e+09
7.1035962 2.9489896 -1.7648803 8 1 1.6812914e+09
10.0837 2.1506541 2.3685222 36 14 1.6812914e+09
10.657888 4.4248295 3.0785189 76 15 1.6812914e+09
10.085567 2.1510396 1.6241132 38 12 1.6812914e+09
10.646526 4.3940487 2.2299838 77 13 1.6812914e+09
10.086702 2.1494343 0.89922941 38 10 1.6812914e+09
10.645181 4.3739719 1.4068069 67 11 1.6812914e+09
10.090089 2.1464677 0.17945436 39 8 1.6812914e+09
10.667626 4.3723459 0.60238683 81 9 1.6812914e+09
10.080935 2.1408441 -0.54006791 38 6 1.6812914e+09
10.340564 4.2318234 -0.19441979 20 7 1.6812914e+09
8.9821157 1.9027758 -1.1214297 40 4 1.6812914e+09
10.033431 4.1059718 -0.9435358 23 5 1.6812914e+09
8.87819 1.8743178 -1.7537186 9 2 1.6812914e+09
10.443477 4.2803307 -1.7841436 16 3 1.6812914e+09
6.4217992 1.3515576 -1.7478304 9 0 1.6812914e+09
7.1098518 2.9210796 -1.7637572 8 1 1.6812914e+09
10.088762 2.1149426 2.3679605 36 14 1.6812914e+09
10.653169 4.3793273 3.0727031 77 15 1.6812914e+09
10.08093 2.1132896 1.6221621 39 12 1.6812914e+09
10.652715 4.3531418 2.2280777 77 13 1.6812914e+09
10.082323 2.1099017 0.89813989 38 10 1.6812914e+09
10.658087 4.3358507 1.4065027 84 11 1.6812914e+09
10.08076 2.105896 0.17914893 39 8 1.6812914e+09
10.669702 4.3275824 0.60160178 81 9 1.6812914e+09
10.086268 2.1033719 -0.5399366 38 6 1.6812914e+09
10.343691 4.1910052 -0.19420163 18 7 1.6812914e+09
nan nan nan 0 4 1.6812914e+09
10.033854 4.0653067 -0.94223106 25 5 1.6812914e+09
8.8918886 1.8448101 -1.7551472 8 2 1.6812914e+09
10.45149 4.2410612 -1.7829689 16 3 1.6812914e+09
6.4241128 1.3286445 -1.7471837 9 0 1.6812914e+09
7.1267724 2.8990018 -1.7654418 8 1 1.6812914e+09
10.07497 2.0735354 2.3629069 36 14 1.6812914e+09
10.657966 4.3356972 3.0694721 79 15 1.6812914e+09
10.054746 2.0693638 1.616699 39 12 1.6812914e+09
10.657223 4.309464 2.2256947 77 13 1.6812914e+09
10.087187 2.0741937 0.89792204 39 10 1.6812914e+09
10.650142 4.289341 1.4034603 80 11 1.6812914e+09
10.075807 2.0681839 0.17893079 39 8 1.6812914e+09
10.673161 4.285656 0.60094762 81 9 1.6812914e+09
10.039742 2.0571358 -0.53704858 38 6 1.6812914e+09
10.39537 4.1697774 -0.19489974 9 7 1.6812914e+09
nan nan nan 0 4 1.6812914e+09
10.03874 4.0265446 -0.94136131 23 5 1.6812914e+09
8.9006786 1.8142501 -1.7556233 9 2 1.6812914e+09
10.468522 4.2054744 -1.7833605 16 3 1.6812914e+09
6.4168782 1.303811 -1.7439506 9 0 1.6812914e+09
7.1391077 2.8750184 -1.7660034 8 1 1.6812914e+09
10.081791 2.0401139 2.3629069 29 14 1.6812914e+09
10.658846 4.294909 3.0655947 77 15 1.6812914e+09
9.9986229 2.0232868 1.6065531 16 12 1.6812914e+09
10.650955 4.2658792 2.2214055 77 13 1.6812914e+09
10.08216 2.0365069 0.89683259 25 10 1.6812914e+09
10.665049 4.2521391 1.4034603 80 11 1.6812914e+09
10.070357 2.03229 0.17871264 38 8 1.6812914e+09
10.671078 4.2437744 0.60003173 80 9 1.6812914e+09
10.090564 2.0326986 -0.53941154 38 6 1.6812914e+09
10.549231 4.1888709 -0.1975176 22 7 1.6812914e+09
nan nan nan 0 4 1.6812914e+09
10.033524 3.9858689 -0.93962163 21 5 1.6812914e+09
8.8973303 1.7812445 -1.7537186 9 2 1.6812914e+09
10.469374 4.1634269 -1.7810113 16 3 1.6812914e+09
6.426127 1.2823478 -1.7452439 9 0 1.6812914e+09
7.1418161 2.8486168 -1.7643188 8 1 1.6812914e+09
10.072124 2.0015886 2.3589761 36 14 1.6812914e+09
10.664802 4.2540936 3.06301 76 15 1.6812914e+09
10.080709 2.0032806 1.6186501 39 12 1.6812914e+09
10.656656 4.2250524 2.2194989 77 13 1.6812914e+09
10.071756 1.9996698 0.89530736 36 10 1.6812914e+09
10.668288 4.2103257 1.401939 80 11 1.6812914e+09
10.045514 1.9908135 0.17814542 36 8 1.6812914e+09
10.674212 4.2019219 0.59937751 80 9 1.6812914e+09
9.9947309 1.9771327 -0.53389794 29 6 1.6812914e+09
10.661481 4.1904635 -0.1993501 42 7 1.6812914e+09
9.8404331 1.9412899 -1.2254797 26 4 1.6812914e+09
10.038795 3.9454195 -0.93875182 22 5 1.6812914e+09
8.9034939 1.7501762 -1.7537186 9 2 1.6812914e+09
10.490735 4.1295724 -1.782186 16 3 1.6812914e+09
6.4210839 1.2580539 -1.7426573 9 0 1.6812914e+09
7.1567397 2.8242126 -1.7654418 8 1 1.6812914e+09
10.088614 1.9682826 2.3612223 38 14 1.6812914e+09
10.663866 4.2106256 3.0584865 79 15 1.6812914e+09
10.085216 1.9676076 1.6182598 38 12 1.6812914e+09
10.655351 4.1815467 2.2161629 77 13 1.6812914e+09
10.086352 1.9641685 0.89596105 38 10 1.6812914e+09
10.664432 4.1658306 1.3995053 79 11 1.6812914e+09
10.072373 1.9577937 0.17849448 38 8 1.6812914e+09
10.668607 4.1546092 0.59819996 81 9 1.6812914e+09
10.077889 1.9552145 -0.5379675 38 6 1.6812914e+09
10.620142 4.1314507 -0.19830297 56 7 1.6812914e+09
10.069188 1.9480641 -1.2531656 41 4 1.6812914e+09
10.036261 3.904026 -0.93722963 21 5 1.6812914e+09
8.9167795 1.7204802 -1.7551472 9 2 1.6812914e+09
10.491284 4.087544 -1.7798369 16 3 1.6812914e+09
6.4301796 1.2365433 -1.7439506 9 0 1.6812914e+09
7.1574802 2.7956631 -1.7631958 7 1 1.6812914e+09
10.06944 1.9262623 2.3550456 35 14 1.6812914e+09
10.665731 4.1662345 3.0546093 77 15 1.6812914e+09
10.089934 1.9301667 1.6178696 39 12 1.6812914e+09
10.661455 4.1389074 2.2142565 81 13 1.6812914e+09
10.083361 1.92708 0.89508945 39 10 1.6812914e+09
10.669653 4.1249967 1.3982882 81 11 1.6812914e+09
10.076691 1.9221547 0.17845084 39 8 1.6812914e+09
10.680716 4.1164446 0.59806913 83 9 1.6812914e+09
10.082201 1.9195577 -0.53783619 38 6 1.6812914e+09
10.559863 4.0655847 -0.19690676 35 7 1.6812914e+09
10.066175 1.9110544 -1.2519486 36 4 1.6812914e+09
10.040532 3.8653862 -0.93635976 23 5 1.6812914e+09
8.9082613 1.6866078 -1.7522902 9 2 1.6812914e+09
10.505488 4.0508976 -1.7798369 18 3 1.6812914e+09
6.4344568 1.2140902 -1.7439506 9 0 1.6812914e+09
7.1626511 2.7689021 -1.7620727 8 1 1.6812914e+09
10.035069 1.8852206 2.3454995 21 14 1.6812914e+09
10.663725 4.1247382 3.050086 79 15 1.6812914e+09
9.9967728 1.8780205 1.6018704 26 12 1.6812914e+09
10.65909 4.0973601 2.2109203 80 13 1.6812914e+09
10.038621 1.8822414 0.89051378 30 10 1.6812914e+09
10.665448 4.0806265 1.3958542 80 11 1.6812914e+09
10.090381 1.890108 0.17858174 39 8 1.6812914e+09
10.673318 4.0729847 0.59689158 83 9 1.6812914e+09
10.086057 1.8856552 -0.53770494 38 6 1.6812914e+09
10.660404 4.0616627 -0.19852112 33 7 1.6812914e+09
10.087093 1.8803892 -1.2537742 39 4 1.6812914e+09
10.023046 3.8205252 -0.93353295 23 5 1.6812914e+09
8.9165068 1.6559492 -1.7527663 9 2 1.6812914e+09
10.505725 4.0089145 -1.7774876 16 3 1.6812914e+09
6.4386559 1.1916225 -1.7439506 9 0 1.6812914e+09
7.1740689 2.7460072 -1.7626342 8 1 1.6812914e+09
10.559095 1.9454408 2.4667895 61 14 1.6812914e+09
10.669037 4.0840321 3.0475011 76 15 1.6812914e+09
10.129552 1.8663599 1.6221621 23 12 1.6812914e+09
10.66874 4.0583811 2.2099671 82 13 1.6812914e+09
10.052155 1.8502929 0.89116746 25 10 1.6812914e+09
10.668026 4.0389743 1.3943331 79 11 1.6812914e+09
10.00595 1.838179 0.17696738 30 8 1.6812914e+09
10.671124 4.0295224 0.5959757 81 9 1.6812914e+09
9.9796162 1.8297449 -0.53166628 34 6 1.6812914e+09
10.674518 4.024426 -0.19852112 46 7 1.6812914e+09
10.037452 1.8349136 -1.2467766 35 4 1.6812914e+09
10.023002 3.7784858 -0.93222815 29 5 1.6812914e+09
8.9149895 1.6234971 -1.7513379 9 2 1.6812914e+09
10.512726 3.9695985 -1.7763132 18 3 1.6812914e+09
6.4404001 1.1687096 -1.743304 9 0 1.6812914e+09
7.1772518 2.7171025 -1.7609496 8 1 1.6812914e+09
10.649732 1.9237137 2.4864428 80 14 1.6812914e+09
10.667422 4.0407705 3.0429778 81 15 1.6812914e+09
10.624455 1.91914 1.7005972 80 12 1.6812914e+09
10.662173 4.0133262 2.2056777 81 13 1.6812914e+09
10.605453 1.9118818 0.93975675 67 10 1.6812914e+09
10.665795 3.995611 1.3922035 84 11 1.6812914e+09
10.224196 1.8395233 0.18071966 32 8 1.6812914e+09
10.669453 3.9842639 0.59505981 81 9 1.6812914e+09
10.099293 1.8134329 -0.53770494 23 6 1.6812914e+09
10.676792 3.9827676 -0.19830297 52 7 1.6812914e+09
10.05388 1.7998598 -1.2479936 27 4 1.6812914e+09
10.010466 3.7338905 -0.92983615 38 5 1.6812914e+09
8.9230194 1.5927992 -1.7518141 8 2 1.6812914e+09
10.517268 3.9294176 -1.7747471 19 3 1.6812914e+09
6.3992629 1.1381984 -1.7310181 4 0 1.6812914e+09
7.1866927 2.6920326 -1.7609496 7 1 1.6812914e+09
10.656711 1.8846675 2.4864428 80 14 1.6812914e+09
10.659548 3.9931641 3.0365155 77 15 1.6812914e+09
10.655737 1.8844831 1.7044995 87 12 1.6812914e+09
10.667612 3.9707918 2.2037714 83 13 1.6812914e+09
10.651305 1.881777 0.94324309 81 10 1.6812914e+09
10.670373 3.9549026 1.3909864 83 11 1.6812914e+09
10.634277 1.8749377 0.18787514 82 8 1.6812914e+09
10.67627 3.9443977 0.59466732 81 9 1.6812914e+09
10.612085 1.8672092 -0.56474775 70 6 1.6812914e+09
10.678905 3.9411423 -0.1980848 76 7 1.6812914e+09
10.130981 1.7771757 -1.2568165 4 4 1.6812914e+09
10.011758 3.6946089 -0.92874891 38 5 1.6812914e+09
8.9261065 1.5612198 -1.7513379 8 2 1.6812914e+09
10.533237 3.893539 -1.7751387 18 3 1.6812914e+09
5.1636419 0.90018559 -1.3941259 9 0 1.6812914e+09
7.2074647 2.67117 -1.7637572 8 1 1.6812914e+09
10.670103 1.8505659 2.4881275 81 14 1.6812914e+09
10.66141 3.9535904 3.0332844 77 15 1.6812914e+09
10.659493 1.8487153 1.7041092 89 12 1.6812914e+09
10.664604 3.9294488 2.2004352 79 13 1.6812914e+09
10.660263 1.8450097 0.94346094 82 10 1.6812914e+09
10.667807 3.9116457 1.3888568 83 11 1.6812914e+09
10.655215 1.8422157 0.18813694 89 8 1.6812914e+09
10.675225 3.9038217 0.59388226 79 9 1.6812914e+09
10.6502 1.837521 -0.56645429 82 6 1.6812914e+09
10.669122 3.8952601 -0.1976485 74 7 1.6812914e+09
10.30801 1.7729863 -1.2781134 1 4 1.6812914e+09
10.005241 3.6545441 -0.92700922 36 5 1.6812914e+09
8.9315014 1.5300524 -1.7513379 8 2 1.6812914e+09
10.53517 3.8525021 -1.773181 19 3 1.6812914e+09
5.1286631 0.87566543 -1.3837799 22 0 1.6812914e+09
7.2162828 2.6472545 -1.7637572 8 1 1.6812914e+09
10.664489 1.8112715 2.4853199 81 14 1.6812914e+09
10.666078 3.9130199 3.0306997 80 15 1.6812914e+09
10.653708 1.8094301 1.7021581 87 12 1.6812914e+09
10.669034 3.888833 2.1985288 80 13 1.6812914e+09
10.654045 1.807568 0.94237149 84 10 1.6812914e+09
10.679065 3.8735373 1.3885525 83 11 1.6812914e+09
10.649258 1.8029265 0.18791878 87 8 1.6812914e+09
10.679398 3.8631334 0.59335887 82 9 1.6812914e+09
10.654088 1.7999181 -0.56632304 81 6 1.6812914e+09
10.609781 3.8316438 -0.19629593 41 7 1.6812914e+09
10.622462 1.7888664 -1.3164476 75 4 1.6812914e+09
10.011543 3.6153078 -0.92635691 36 5 1.6812914e+09
8.9319468 1.4980552 -1.7503855 8 2 1.6812914e+09
10.534624 3.8106592 -1.7708319 16 3 1.6812914e+09
5.1316886 0.85775775 -1.3837799 28 0 1.6812914e+09
7.2259369 2.6207879 -1.7637572 8 1 1.6812914e+09
10.673149 1.7744337 2.4858813 81 14 1.6812914e+09
10.666054 3.8708162 3.0268226 79 15 1.6812914e+09
10.662395 1.7726352 1.7025483 87 12 1.6812914e+09
10.661767 3.8440673 2.1942394 76 13 1.6812914e+09
10.633573 1.7640277 0.93997467 40 10 1.6812914e+09
10.669168 3.8278475 1.3855101 81 11 1.6812914e+09
10.633599 1.7602124 0.18752609 47 8 1.6812914e+09
10.674682 3.8172333 0.59231216 82 9 1.6812914e+09
10.663077 1.7612633 -0.56645429 83 6 1.6812914e+09
10.3995 3.7146161 -0.192151 18 7 1.6812914e+09
10.462448 1.7225366 -1.2957593 89 4 1.6812914e+09
9.9983063 3.5711131 -0.92396486 38 5 1.6812914e+09
8.9395447 1.4672649 -1.7508618 8 2 1.6812914e+09
10.536239 3.7696996 -1.7688744 18 3 1.6812914e+09
5.1394186 0.8406176 -1.3850732 28 0 1.6812914e+09
7.2281637 2.5930767 -1.7620727 7 1 1.6812914e+09
10.667558 1.7333509 2.4830737 82 14 1.6812914e+09
10.671079 3.8284309 3.0242376 79 15 1.6812914e+09
10.66151 1.7323568 1.7013776 87 12 1.6812914e+09
10.664228 3.8008401 2.1918564 79 13 1.6812914e+09
10.533954 1.7097585 0.93060541 42 10 1.6812914e+09
10.680787 3.7878869 1.3852059 81 11 1.6812914e+09
10.543446 1.7075143 0.18582448 25 8 1.6812914e+09
10.687942 3.7799485 0.59231216 82 9 1.6812914e+09
10.607543 1.7140849 -0.5631724 35 6 1.6812914e+09
10.381767 3.6674557 -0.19158378 12 7 1.6812914e+09
10.524745 1.6950712 -1.3027568 90 4 1.6812914e+09
10.036539 3.5453267 -0.92635691 36 5 1.6812914e+09
8.9521322 1.4356544 -1.7522902 8 2 1.6812914e+09
10.54533 3.729409 -1.7680913 18 3 1.6812914e+09
5.1399364 0.82229179 -1.3844265 28 0 1.6812914e+09
7.2440577 2.5702777 -1.7637572 8 1 1.6812914e+09
10.675949 1.6964858 2.4836352 80 14 1.6812914e+09
10.668447 3.7854989 3.0197144 79 15 1.6812914e+09
10.66993 1.6955179 1.7017679 84 12 1.6812914e+09
10.663547 3.7586913 2.188997 79 13 1.6812914e+09
10.655467 1.6913091 0.94084626 47 10 1.6812914e+09
10.677555 3.7448256 1.3830762 80 11 1.6812914e+09
10.527121 1.6671851 0.18543181 23 8 1.6812914e+09
10.68222 3.7360163 0.59126544 81 9 1.6812914e+09
10.532084 1.6642017 -0.55884033 36 6 1.6812914e+09
10.281254 3.5915782 -0.1894895 11 7 1.6812914e+09
10.638453 1.6752894 -1.3161434 90 4 1.6812914e+09
10.020642 3.5004032 -0.92374748 32 5 1.6812914e+09
8.9546642 1.4040172 -1.7518141 8 2 1.6812914e+09
10.544301 3.6876795 -1.7657422 19 3 1.6812914e+09
5.1475472 0.80508983 -1.3857198 28 0 1.6812914e+09
7.2506871 2.5441675 -1.7631958 8 1 1.6812914e+09
10.676991 1.6584623 2.4825122 82 14 1.6812914e+09
10.677039 3.746635 3.0184219 80 15 1.6812914e+09
10.666023 1.6567479 1.700207 84 12 1.6812914e+09
10.66965 3.7190192 2.187567 79 13 1.6812914e+09
10.653922 1.6529597 0.94019252 82 10 1.6812914e+09
10.681186 3.7042751 1.3818592 82 11 1.6812914e+09
10.599574 1.6407418 0.18660985 41 8 1.6812914e+09
10.685759 3.6954377 0.59074205 84 9 1.6812914e+09
10.636523 1.6426537 -0.56409132 62 6 1.6812914e+09
10.411842 3.5965226 -0.19167104 2 7 1.6812914e+09
10.651595 1.6392753 -1.3170562 82 4 1.6812914e+09
10.058691 3.4743586 -0.92613947 27 5 1.6812914e+09
8.961936 1.3731223 -1.7522902 8 2 1.6812914e+09
10.55011 3.6484268 -1.7645677 20 3 1.6812914e+09
5.1527138 0.78748065 -1.3863664 28 0 1.6812914e+09
7.2664266 2.5212421 -1.7648803 8 1 1.6812914e+09
10.682716 1.6211824 2.4825122 82 14 1.6812914e+09
10.664958 3.700623 3.0113137 77 15 1.6812914e+09
10.669299 1.6191361 1.6998167 86 12 1.6812914e+09
10.664007 3.6753478 2.1837544 81 13 1.6812914e+09
10.664552 1.6165063 0.94062835 87 10 1.6812914e+09
10.675276 3.660522 1.3794254 79 11 1.6812914e+09
10.65714 1.6115725 0.18752609 77 8 1.6812914e+09
10.684422 3.6532633 0.58995706 83 9 1.6812914e+09
10.659473 1.6081195 -0.56501031 86 6 1.6812914e+09
10.161803 3.4703751 -0.186828 21 7 1.6812914e+09
10.642529 1.5998733 -1.3152306 83 4 1.6812914e+09
10.063688 3.4368081 -0.92548704 30 5 1.6812914e+09
8.9545383 1.3400172 -1.7499094 9 2 1.6812914e+09
10.553436 3.6083782 -1.7630016 20 3 1.6812914e+09
5.1649857 0.77091229 -1.3889529 30 0 1.6812914e+09
7.2682714 2.4934866 -1.7631958 8 1 1.6812914e+09
10.681081 1.5828128 2.4808276 81 14 1.6812914e+09
10.670959 3.6610191 3.0093751 83 15 1.6812914e+09
10.657786 1.5793525 1.6970851 82 12 1.6812914e+09
10.672128 3.6365161 2.1828012 82 13 1.6812914e+09
10.660275 1.5778131 0.93975675 86 10 1.6812914e+09
10.676239 3.6192479 1.3779041 82 11 1.6812914e+09
10.647863 1.5721742 0.18726431 84 8 1.6812914e+09
10.67819 3.6095414 0.58891034 83 9 1.6812914e+09
10.665022 1.5709012 -0.56501031 88 6 1.6812914e+09
10.128863 3.4196713 -0.18599901 52 7 1.6812914e+09
10.650504 1.5630742 -1.3155348 84 4 1.6812914e+09
10.068545 3.3992653 -0.92483473 29 5 1.6812914e+09
8.9640188 1.3094604 -1.7508618 8 2 1.6812914e+09
10.56129 3.5699348 -1.7622186 21 3 1.6812914e+09
5.1700354 0.75322574 -1.3895996 30 0 1.6812914e+09
7.2769313 2.4681003 -1.7631958 8 1 1.6812914e+09
10.688951 1.5458676 2.481389 82 14 1.6812914e+09
10.667666 3.6183116 3.0048516 82 15 1.6812914e+09
10.668122 1.5428463 1.6978656 88 12 1.6812914e+09
10.666152 3.5929661 2.1789885 81 13 1.6812914e+09
10.668183 1.5409482 0.93997467 87 10 1.6812914e+09
10.677045 3.5780115 1.3763829 82 11 1.6812914e+09
10.670604 1.5374892 0.18756972 89 8 1.6812914e+09
10.676521 3.5674932 0.58812529 84 9 1.6812914e+09
10.667969 1.533309 -0.564879 88 6 1.6812914e+09
10.11229 3.3747864 -0.18547544 46 7 1.6812914e+09
10.623961 1.5213201 -1.3115798 68 4 1.6812914e+09
10.033108 3.34831 -0.92048562 25 5 1.6812914e+09
8.9661055 1.2778163 -1.7503855 11 2 1.6812914e+09
10.557297 3.5275629 -1.759478 20 3 1.6812914e+09
5.1750236 0.73551345 -1.3902462 29 0 1.6812914e+09
7.2878118 2.4434602 -1.7637572 8 1 1.6812914e+09
10.689457 1.507867 2.4802661 83 14 1.6812914e+09
10.671073 3.5779774 3.0022666 81 15 1.6812914e+09
10.670998 1.5052538 1.6974754 87 12 1.6812914e+09
10.666988 3.5518308 2.1766055 82 13 1.6812914e+09
10.668564 1.5030055 0.9395389 87 10 1.6812914e+09
10.675339 3.5360327 1.3745575 83 11 1.6812914e+09
10.663529 1.4984952 0.18735157 87 8 1.6812914e+09
10.674686 3.5254998 0.58734024 79 9 1.6812914e+09
10.527382 1.4756379 -0.55713373 52 6 1.6812914e+09
10.116889 3.3371155 -0.18534455 46 7 1.6812914e+09
10.641495 1.4859401 -1.3131009 81 4 1.6812914e+09
10.063654 3.3195176 -0.9222253 13 5 1.6812914e+09
8.9680805 1.2461736 -1.7499094 12 2 1.6812914e+09
10.564857 3.4891388 -1.7586949 22 3 1.6812914e+09
5.1823444 0.71810609 -1.3915395 29 0 1.6812914e+09
7.30092 2.4195414 -1.7648803 7 1 1.6812914e+09
10.694655 1.4705446 2.4802661 86 14 1.6812914e+09
10.672038 3.5369034 2.9990358 82 15 1.6812914e+09
10.671294 1.4673239 1.696695 87 12 1.6812914e+09
10.672329 3.5122702 2.1751757 82 13 1.6812914e+09
10.673745 1.4657562 0.9395389 87 10 1.6812914e+09
10.680542 3.496428 1.3736447 83 11 1.6812914e+09
10.671172 1.4616021 0.18739522 87 8 1.6812914e+09
10.677435 3.4851141 0.58681691 77 9 1.6812914e+09
10.65615 1.455758 -0.56369752 80 6 1.6812914e+09
10.121347 3.299453 -0.18521366 46 7 1.6812914e+09
10.649076 1.4491193 -1.3134052 83 4 1.6812914e+09
10.042034 3.2735474 -0.91918093 22 5 1.6812914e+09
8.9772396 1.2155193 -1.7508618 13 2 1.6812914e+09
10.558197 3.4461026 -1.7555628 19 3 1.6812914e+09
5.1919985 0.70097882 -1.3934792 29 0 1.6812914e+09
7.295434 2.3894835 -1.7615111 7 1 1.6812914e+09
10.69248 1.4322352 2.4785814 86 14 1.6812914e+09
10.672846 3.4958658 2.9958048 82 15 1.6812914e+09
10.673903 1.4297376 1.6963047 87 12 1.6812914e+09
10.672857 3.4711955 2.1727927 82 13 1.6812914e+09
10.671391 1.4274995 0.93888527 84 10 1.6812914e+09
10.680879 3.455301 1.3721236 84 11 1.6812914e+09
10.666298 1.4230232 0.18722068 87 8 1.6812914e+09
10.677657 3.443985 0.58616269 80 9 1.6812914e+09
10.671066 1.4198678 -0.56422263 86 6 1.6812914e+09
10.132803 3.2641029 -0.18521366 47 7 1.6812914e+09
10.658989 1.4125896 -1.3140137 83 4 1.6812914e+09
10.048659 3.2369449 -0.91874599 23 5 1.6812914e+09
8.9716959 1.1828941 -1.748957 14 2 1.6812914e+09
10.567812 3.4084675 -1.7551712 23 3 1.6812914e+09
5.1920195 0.6825372 -1.3928326 29 0 1.6812914e+09
7.3060479 2.3647549 -1.7620727 8 1 1.6812914e+09
10.69983 1.3952173 2.4791429 84 14 1.6812914e+09
10.668901 3.4533761 2.991281 79 15 1.6812914e+09
10.666587 1.3908757 1.6943536 82 12 1.6812914e+09
10.668555 3.4286561 2.1694567 79 13 1.6812914e+09
10.67137 1.3895983 0.93844944 86 10 1.6812914e+09
10.681059 3.4142141 1.3706024 84 11 1.6812914e+09
10.6712 1.3857824 0.18722068 88 8 1.6812914e+09
10.680099 3.4036558 0.5856393 80 9 1.6812914e+09
10.675958 1.3826102 -0.56422263 88 6 1.6812914e+09
10.132227 3.2249172 -0.18499549 46 7 1.6812914e+09
10.658933 1.3747401 -1.3134052 84 4 1.6812914e+09
10.055151 3.2003362 -0.91831106 23 5 1.6812914e+09
8.9806376 1.1521937 -1.7499094 12 2 1.6812914e+09
10.556122 3.3640516 -1.7512561 25 3 1.6812914e+09
5.1919746 0.66410387 -1.3921859 23 0 1.6812914e+09
7.309618 2.3377507 -1.7609496 8 1 1.6812914e+09
10.699801 1.357247 2.47802 84 14 1.6812914e+09
10.669391 3.4124305 2.9880502 80 15 1.6812914e+09
10.666476 1.353013 1.6935731 80 12 1.6812914e+09
10.668764 3.3876765 2.1670735 80 13 1.6812914e+09
10.671213 1.3517146 0.93801367 87 10 1.6812914e+09
10.675762 3.3735359 1.3684727 80 11 1.6812914e+09
10.673491 1.3482114 0.18717705 88 8 1.6812914e+09
10.67763 3.3618503 0.5848543 80 9 1.6812914e+09
10.668333 1.3437775 -0.56356627 80 6 1.6812914e+09
10.141038 3.1887791 -0.18495187 47 7 1.6812914e+09
10.661205 1.3372167 -1.3131009 84 4 1.6812914e+09
10.06626 3.1652176 -0.91831106 29 5 1.6812914e+09
8.979538 1.1217989 -1.748957 12 2 1.6812914e+09
10.557801 3.3260558 -1.7496901 27 3 1.6812914e+09
5.2541757 0.65340734 -1.4083517 27 0 1.6812914e+09
7.3107667 2.3100147 -1.7592651 8 1 1.6812914e+09
10.699408 1.3211616 2.476897 86 14 1.6812914e+09
10.671438 3.3741148 2.9854655 79 15 1.6812914e+09
10.663552 1.3167279 1.6924025 83 12 1.6812914e+09
10.670576 3.3493354 2.1651673 79 13 1.6812914e+09
10.670923 1.3138491 0.9375779 87 10 1.6812914e+09
10.673263 3.3318071 1.3666472 80 11 1.6812914e+09
10.672942 1.3122003 0.18708977 88 8 1.6812914e+09
10.674418 3.3219662 0.58406925 80 9 1.6812914e+09
10.63556 1.3038419 -0.56159711 74 6 1.6812914e+09
10.135401 3.1481636 -0.18464646 43 7 1.6812914e+09
10.591685 1.2928478 -1.3039738 56 4 1.6812914e+09
10.048166 3.122937 -0.91570163 25 5 1.6812914e+09
8.9614716 1.0877901 -1.7446716 12 2 1.6812914e+09
10.552845 3.284039 -1.7469494 29 3 1.6812914e+09
5.2875934 0.63881814 -1.4167578 9 0 1.6812914e+09
7.3253608 2.2879419 -1.7609496 8 1 1.6812914e+09
10.696697 1.2829363 2.4752123 86 14 1.6812914e+09
10.669322 3.3325179 2.9815881 79 15 1.6812914e+09
10.668084 1.2794969 1.6924025 86 12 1.6812914e+09
10.665796 3.3069735 2.1618311 79 13 1.6812914e+09
10.677694 1.2787516 0.93779582 88 10 1.6812914e+09
10.677714 3.2923336 1.3657346 80 11 1.6812914e+09
10.670012 1.2740489 0.18695889 81 8 1.6812914e+09
10.671634 3.2802782 0.5832842 82 9 1.6812914e+09
10.464031 1.2457826 -0.55227655 80 6 1.6812914e+09
10.169677 3.1218815 -0.18508275 36 7 1.6812914e+09
10.628168 1.2596595 -1.3079288 61 4 1.6812914e+09
10.023298 3.0768645 -0.91243982 30 5 1.6812914e+09
8.9676523 1.0567888 -1.7451476 11 2 1.6812914e+09
10.554806 3.244277 -1.7453833 25 3 1.6812914e+09
6.4625654 0.75864726 -1.732958 9 0 1.6812914e+09
7.3309751 2.2616379 -1.760388 8 1 1.6812914e+09
10.698691 1.245309 2.4746509 83 14 1.6812914e+09
10.669353 3.2916901 2.9783573 79 15 1.6812914e+09
10.660221 1.2408251 1.6904514 82 12 1.6812914e+09
10.665542 3.2661245 2.1594479 82 13 1.6812914e+09
10.672196 1.2403232 0.93692428 86 10 1.6812914e+09
10.679648 3.2521462 1.3645176 81 11 1.6812914e+09
10.661979 1.2353593 0.18674074 80 8 1.6812914e+09
10.671076 3.2393765 0.58262998 81 9 1.6812914e+09
10.431114 1.2049576 -0.55030739 84 6 1.6812914e+09
10.158985 3.0798271 -0.18469007 40 7 1.6812914e+09
10.447609 1.2013235 -1.2851108 40 4 1.6812914e+09
10.022061 3.03824 -0.91135252 36 5 1.6812914e+09
8.9834785 1.0268708 -1.7475286 12 2 1.6812914e+09
10.544805 3.2009501 -1.7418597 23 3 1.6812914e+09
6.4699731 0.73662919 -1.7342513 9 0 1.6812914e+09
7.334166 2.2346115 -1.7592651 8 1 1.6812914e+09
10.698132 1.2074103 2.4735277 75 14 1.6812914e+09
10.666919 3.2501979 2.9744799 79 15 1.6812914e+09
10.65958 1.2030534 1.6896709 82 12 1.6812914e+09
10.665133 3.2253182 2.1570652 82 13 1.6812914e+09
10.671512 1.2025058 0.93648845 86 10 1.6812914e+09
10.676678 3.2105544 1.3626921 80 11 1.6812914e+09
10.666225 1.1981345 0.18674074 82 8 1.6812914e+09
10.672752 3.1992362 0.58210665 86 9 1.6812914e+09
10.440219 1.1690937 -0.55056995 34 6 1.6812914e+09
10.167811 3.0418551 -0.18464646 45 7 1.6812914e+09
10.436941 1.1632005 -1.2832855 32 4 1.6812914e+09
10.030743 3.000772 -0.91113502 35 5 1.6812914e+09
nan nan nan 0 2 1.6812914e+09
10.541723 3.159863 -1.7395107 23 3 1.6812914e+09
6.4678283 0.71238315 -1.732958 9 0 1.6812914e+09
7.3399744 2.2070124 -1.7587035 8 1 1.6812914e+09
10.704702 1.1703238 2.4740891 27 14 1.6812914e+09
10.671263 3.2108531 2.9725413 79 15 1.6812914e+09
10.673533 1.1669091 1.6912318 49 12 1.6812914e+09
10.664573 3.1845546 2.1546822 82 13 1.6812914e+09
10.675848 1.1633847 0.93648845 81 10 1.6812914e+09
10.678308 3.1704371 1.3614752 82 11 1.6812914e+09
10.655636 1.1574157 0.18647894 82 8 1.6812914e+09
10.66765 3.1551337 0.58119076 86 9 1.6812914e+09
10.504004 1.1372604 -0.55372059 18 6 1.6812914e+09
10.142413 2.9957075 -0.18399198 46 7 1.6812914e+09
10.470741 1.1281242 -1.2869363 35 4 1.6812914e+09
nan nan nan 0 5 1.6812914e+09
8.0509157 0.86355895 -1.5642047 67 2 1.6812914e+09
10.536119 3.1181345 -1.73677 23 3 1.6812914e+09
6.4654732 0.68929112 -1.7316647 8 0 1.6812914e+09
7.3476329 2.1813779 -1.7587035 8 1 1.6812914e+09
10.694384 1.1295483 2.4707203 1 14 1.6812914e+09
10.676014 3.1696539 2.9706025 80 15 1.6812914e+09
10.667916 1.1267449 1.6896709 6 12 1.6812914e+09
10.664403 3.1419728 2.1522992 82 13 1.6812914e+09
10.677366 1.1258512 0.93627053 23 10 1.6812914e+09
10.677949 3.1277852 1.359954 81 11 1.6812914e+09
10.669554 1.1212569 0.18665348 43 8 1.6812914e+09
10.671411 3.1157753 0.58079827 83 9 1.6812914e+09
10.522808 1.1021457 -0.55450821 12 6 1.6812914e+09
10.090424 2.9420671 -0.18285759 43 7 1.6812914e+09
10.469678 1.0910541 -1.2863278 35 4 1.6812914e+09
nan nan nan 0 5 1.6812914e+09
5.5273504 0.57293844 -1.0713731 21 2 1.6812914e+09
10.533257 3.0753384 -1.7344209 22 3 1.6812914e+09
5.5357609 0.57089049 -1.4807738 32 0 1.6812914e+09
7.3552027 2.1557164 -1.7587035 7 1 1.6812914e+09
3.2966974 0.33777723 0.75581574 59 14 1.6812914e+09
10.668475 3.1269269 2.9654331 82 15 1.6812914e+09
3.2896152 0.33704308 0.51704711 23 12 1.6812914e+09
10.668236 3.1026688 2.1508694 81 13 1.6812914e+09
nan nan nan 0 10 1.6812914e+09
10.679269 3.0877323 1.358737 84 11 1.6812914e+09
10.670918 1.0837544 0.18660985 4 8 1.6812914e+09
10.670228 3.0750449 0.58014405 79 9 1.6812914e+09
10.568818 1.0696743 -0.55673993 1 6 1.6812914e+09
10.079016 2.9005959 -0.1824649 43 7 1.6812914e+09
10.478362 1.0549978 -1.2869363 7 4 1.6812914e+09
9.0732737 2.610671 -0.82132632 38 5 1.6812914e+09
5.5219898 0.55290967 -1.0699446 38 2 1.6812914e+09
10.50597 3.0275962 -1.7281566 25 3 1.6812914e+09
5.5257044 0.55037063 -1.4775407 36 0 1.6812914e+09
7.360343 2.1293504 -1.758142 7 1 1.6812914e+09
3.2857344 0.32507473 0.75300813 47 14 1.6812914e+09
10.674685 3.0883236 2.9641407 82 15 1.6812914e+09
3.3006015 0.32652545 0.51860803 59 12 1.6812914e+09
10.669569 3.0626986 2.148963 82 13 1.6812914e+09
3.3162134 0.32747117 0.2884855 73 10 1.6812914e+09
10.675135 3.0482078 1.3569115 84 11 1.6812914e+09
3.300997 0.32480699 0.057287522 38 8 1.6812914e+09
10.668893 3.0343602 0.57948989 80 9 1.6812914e+09
nan nan nan 0 6 1.6812914e+09
10.079463 2.8626599 -0.18229038 46 7 1.6812914e+09
nan nan nan 0 4 1.6812914e+09
9.0320244 2.5646722 -0.81675971 40 5 1.6812914e+09
5.5237932 0.53459507 -1.0699446 11 2 1.6812914e+09
10.508828 2.99071 -1.7269821 1 3 1.6812914e+09
5.5251884 0.53084886 -1.4768941 19 0 1.6812914e+09
7.3677306 2.1036448 -1.758142 7 1 1.6812914e+09
3.2964947 0.31509915 0.75525421 53 14 1.6812914e+09
10.670938 3.0489211 2.9602633 82 15 1.6812914e+09
3.2967494 0.3151111 0.51782751 59 12 1.6812914e+09
10.667861 3.0239487 2.14658 82 13 1.6812914e+09
3.2975008 0.31401494 0.28674239 59 10 1.6812914e+09
10.673769 3.0075562 1.3553903 86 11 1.6812914e+09
3.3020558 0.31385869 0.057287522 83 8 1.6812914e+09
10.669282 2.9962599 0.5789665 80 9 1.6812914e+09
3.3180387 0.31420094 -0.17341511 90 6 1.6812914e+09
9.997942 2.8017871 -0.18063238 46 7 1.6812914e+09
3.3007698 0.31083712 -0.40220562 68 4 1.6812914e+09
9.028492 2.5313392 -0.81567246 42 5 1.6812914e+09
3.2920818 0.30771735 -0.63472903 35 2 1.6812914e+09
9.0265007 2.5341477 -1.4811093 42 3 1.6812914e+09
3.3050466 0.30660737 -0.87941152 12 0 1.6812914e+09
7.3746662 2.0792012 -1.758142 8 1 1.6812914e+09
3.2781668 0.30181384 0.75076199 49 14 1.6812914e+09
10.679192 3.0109982 2.9596171 83 15 1.6812914e+09
3.2879927 0.302701 0.51626664 57 12 1.6812914e+09
10.675988 2.9860303 2.1461034 82 13 1.6812914e+09
3.2985241 0.30307832 0.28674239 63 10 1.6812914e+09
10.67942 2.9689481 1.3547819 83 11 1.6812914e+09
3.2981524 0.30187735 0.057200257 83 8 1.6812914e+09
10.670053 2.9563286 0.57844311 81 9 1.6812914e+09
3.291765 0.30013746 -0.17197107 69 6 1.6812914e+09
10.000435 2.7648695 -0.18050151 46 7 1.6812914e+09
3.2944205 0.29864517 -0.40129289 66 4 1.6812914e+09
9.0233088 2.4942434 -0.81436777 23 5 1.6812914e+09
3.2931359 0.29622397 -0.63472903 55 2 1.6812914e+09
9.0329132 2.5019641 -1.4807178 39 3 1.6812914e+09
3.2988806 0.29442847 -0.87747163 47 0 1.6812914e+09
7.3775439 2.0508499 -1.7570189 9 1 1.6812914e+09
3.2889073 0.29122344 0.75300813 53 14 1.6812914e+09
10.678004 2.9704609 2.9563863 81 15 1.6812914e+09
3.2939494 0.29165494 0.51704711 57 12 1.6812914e+09
10.669788 2.94417 2.1427672 82 13 1.6812914e+09
3.3070555 0.29163906 0.28739604 67 10 1.6812914e+09
10.677756 2.9283655 1.3532608 86 11 1.6812914e+09
3.3017273 0.2900044 0.057243891 88 8 1.6812914e+09
10.668777 2.9139071 0.57778895 81 9 1.6812914e+09
3.2953305 0.28828683 -0.17210235 74 6 1.6812914e+09
10.000381 2.7273095 -0.18032697 47 7 1.6812914e+09
3.2954929 0.28656852 -0.40129289 63 4 1.6812914e+09
9.0295572 2.4620743 -0.81415027 9 5 1.6812914e+09
3.2965951 0.28493702 -0.63520521 57 2 1.6812914e+09
nan nan nan 0 3 1.6812914e+09
3.3022943 0.28311643 -0.87811828 52 0 1.6812914e+09
7.3846574 2.025085 -1.7570189 11 1 1.6812914e+09
3.2923803 0.27937171 0.75356966 54 14 1.6812914e+09
10.681833 2.9293852 2.9544475 83 15 1.6812914e+09
3.2900748 0.27916506 0.51626664 59 12 1.6812914e+09
10.678141 2.9043982 2.1422908 84 13 1.6812914e+09
3.3030903 0.27967584 0.2869603 68 10 1.6812914e+09
10.680728 2.8891287 1.352348 84 11 1.6812914e+09
3.2977376 0.27806002 0.057156626 86 8 1.6812914e+09
10.664421 2.8727462 0.5770039 81 9 1.6812914e+09
3.293829 0.27657464 -0.17197107 84 6 1.6812914e+09
10.007426 2.6917348 -0.18028335 46 7 1.6812914e+09
3.2816355 0.27383307 -0.39946747 56 4 1.6812914e+09
9.0236673 2.4266527 -0.81284559 32 5 1.6812914e+09
3.2877858 0.2726219 -0.63330048 57 2 1.6812914e+09
nan nan nan 0 3 1.6812914e+09
3.2984486 0.27119434 -0.87682498 53 0 1.6812914e+09
7.3940325 1.9999328 -1.7575804 11 1 1.6812914e+09
3.2957165 0.26864889 0.75413114 55 14 1.6812914e+09
10.672842 2.8888907 2.9492779 79 15 1.6812914e+09
3.2934439 0.26845261 0.51665688 60 12 1.6812914e+09
10.666384 2.8632367 2.1380014 80 13 1.6812914e+09
3.3065283 0.26834434 0.28717816 69 10 1.6812914e+09
10.681159 2.8492661 1.3511311 83 11 1.6812914e+09
3.3011329 0.26732326 0.057200257 87 8 1.6812914e+09
10.661826 2.8341539 0.57634968 81 9 1.6812914e+09
3.2947278 0.26565039 -0.17197107 90 6 1.6812914e+09
10.009514 2.6548605 -0.18015246 42 7 1.6812914e+09
3.2899463 0.26353979 -0.40038019 63 4 1.6812914e+09
9.0124102 2.3915956 -0.81110591 36 5 1.6812914e+09
3.288717 0.26114374 -0.63330048 60 2 1.6812914e+09
9.0395288 2.4021533 -1.4775856 1 3 1.6812914e+09
3.3017826 0.25986719 -0.87747163 56 0 1.6812914e+09
7.3982706 1.9747726 -1.7570189 11 1 1.6812914e+09
3.2893479 0.25657856 0.75244659 53 14 1.6812914e+09
10.675861 2.8497465 2.9473395 80 15 1.6812914e+09
3.2894368 0.2565732 0.51587641 59 12 1.6812914e+09
10.671568 2.8247287 2.1370482 80 13 1.6812914e+09
3.3024342 0.25699419 0.28674239 71 10 1.6812914e+09
10.68384 2.8100677 1.3502182 83 11 1.6812914e+09
3.2970617 0.25541502 0.057112999 86 8 1.6812914e+09
10.664411 2.7950182 0.57595718 80 9 1.6812914e+09
3.295635 0.25414801 -0.17197107 90 6 1.6812914e+09
10.027934 2.6241884 -0.18032697 36 7 1.6812914e+09
3.2858975 0.25167772 -0.39977169 62 4 1.6812914e+09
9.0110664 2.3575954 -0.8102361 36 5 1.6812914e+09
3.2896087 0.2496624 -0.63330048 60 2 1.6812914e+09
9.0526361 2.3718388 -1.4783686 2 3 1.6812914e+09
3.3026261 0.24891664 -0.87747163 54 0 1.6812914e+09
7.4051189 1.9489359 -1.7570189 11 1 1.6812914e+09
3.3169477 0.24707161 0.75862336 41 14 1.6812914e+09
10.671733 2.8087695 2.9434621 77 15 1.6812914e+09
3.3050883 0.24618223 0.51821774 60 12 1.6812914e+09
10.664742 2.7831159 2.1337121 81 13 1.6812914e+09
3.3082783 0.24583149 0.28717816 75 10 1.6812914e+09
10.674371 2.7677667 1.3477844 81 11 1.6812914e+09
3.3054118 0.24445374 0.057243891 90 8 1.6812914e+09
10.664433 2.7552736 0.57543385 82 9 1.6812914e+09
3.3089516 0.24355243 -0.17262745 90 6 1.6812914e+09
10.034614 2.5885432 -0.18028335 30 7 1.6812914e+09
3.2917058 0.24056539 -0.40038019 64 4 1.6812914e+09
9.0095959 2.3236341 -0.80936623 36 5 1.6812914e+09
3.2929082 0.23835389 -0.63377666 63 2 1.6812914e+09
9.053689 2.3383694 -1.4771941 2 3 1.6812914e+09
3.3034751 0.23738679 -0.87747163 55 0 1.6812914e+09
7.4071612 1.9218488 -1.7558959 9 1 1.6812914e+09
3.3542829 0.23747449 0.76704627 8 14 1.6812914e+09
10.67728 2.7684224 2.9421697 79 15 1.6812914e+09
3.3207481 0.23510553 0.52055913 32 12 1.6812914e+09
10.672494 2.7433972 2.1332355 81 13 1.6812914e+09
3.3166106 0.23422688 0.28783184 45 10 1.6812914e+09
10.670019 2.7249346 1.3459588 84 11 1.6812914e+09
3.3087792 0.2325111 0.057287522 62 8 1.6812914e+09
10.67446 2.7161677 0.57543385 84 9 1.6812914e+09
3.3023505 0.23090433 -0.17223363 86 6 1.6812914e+09
10.494597 2.6664269 -0.18839872 40 7 1.6812914e+09
3.2975166 0.22884007 -0.40098864 62 4 1.6812914e+09
9.0035715 2.286911 -0.8080616 36 5 1.6812914e+09
3.291311 0.22611625 -0.63330048 60 2 1.6812914e+09
9.047842 2.3015106 -1.4748449 3 3 1.6812914e+09
3.3163702 0.22609231 -0.88070476 54 0 1.6812914e+09
7.4094357 1.8934782 -1.7547729 11 1 1.6812914e+09
3.4061365 0.22917269 0.7788384 4 14 1.6812914e+09
10.670503 2.7269423 2.9376464 79 15 1.6812914e+09
3.3264766 0.22384153 0.52133954 7 12 1.6812914e+09
10.667734 2.7025044 2.1303759 82 13 1.6812914e+09
3.3298328 0.22347575 0.28892127 11 10 1.6812914e+09
10.667435 2.6846397 1.3444377 40 11 1.6812914e+09
3.3170531 0.22145556 0.057418413 62 8 1.6812914e+09
10.662085 2.6734169 0.57425624 83 9 1.6812914e+09
3.3155923 0.22019632 -0.17289001 56 6 1.6812914e+09
10.651737 2.6668718 -0.19106022 74 7 1.6812914e+09
3.3081999 0.21797563 -0.40220562 43 4 1.6812914e+09
9.0066681 2.254257 -0.80762666 36 5 1.6812914e+09
3.2920802 0.21462606 -0.63330048 41 2 1.6812914e+09
9.0510311 2.2687106 -1.474062 3 3 1.6812914e+09
3.305089 0.21374175 -0.87747163 52 0 1.6812914e+09
7.4160008 1.8676027 -1.7547729 11 1 1.6812914e+09
3.4263656 0.21851219 0.78333056 8 14 1.6812914e+09
10.679955 2.6896787 2.9376464 79 15 1.6812914e+09
3.3420238 0.21316406 0.52368093 3 12 1.6812914e+09
10.669959 2.6634643 2.1289461 82 13 1.6812914e+09
3.3678758 0.2142033 0.29218963 7 10 1.6812914e+09
10.652199 2.6432641 1.3413954 20 11 1.6812914e+09
3.3227952 0.21018857 0.057505675 98 8 1.6812914e+09
10.671351 2.6361828 0.57425624 84 9 1.6812914e+09
3.3213239 0.20893231 -0.17315255 20 6 1.6812914e+09
10.622154 2.6200795 -0.19036211 40 7 1.6812914e+09
3.3163707 0.20688619 -0.40311834 16 4 1.6812914e+09
8.9951382 2.2180245 -0.80588698 35 5 1.6812914e+09
3.3099215 0.20475973 -0.63663369 21 2 1.6812914e+09
9.02495 2.2303739 -1.4685807 4 3 1.6812914e+09
3.3275096 0.20351902 -0.8832913 41 0 1.6812914e+09
7.4201107 1.8411167 -1.7542113 11 1 1.6812914e+09
3.4367983 0.20773172 0.7855767 9 14 1.6812914e+09
10.670067 2.6495836 2.9324765 81 15 1.6812914e+09
3.3476422 0.20237581 0.52446133 3 12 1.6812914e+09
10.664436 2.624542 2.1260865 81 13 1.6812914e+09
3.3785472 0.20303847 0.2930612 3 10 1.6812914e+09
10.66859 2.6078353 1.342308 83 11 1.6812914e+09
3.3284645 0.1994651 0.05759294 63 8 1.6812914e+09
10.665483 2.5972302 0.57347119 83 9 1.6812914e+09
3.3294752 0.19835885 -0.17354637 60 6 1.6812914e+09
10.621521 2.580621 -0.19018759 42 7 1.6812914e+09
3.3244703 0.19632259 -0.40403107 11 4 1.6812914e+09
8.9951859 2.186415 -0.80523461 36 5 1.6812914e+09
3.3253164 0.19405492 -0.63949066 8 2 1.6812914e+09
9.025485 2.1971016 -1.4674062 4 3 1.6812914e+09
3.3474879 0.19300461 -0.88846427 3 0 1.6812914e+09
7.4309072 1.817661 -1.7553344 9 1 1.6812914e+09
3.4253414 0.1950475 0.78276902 9 14 1.6812914e+09
10.672215 2.6105974 2.9305379 81 15 1.6812914e+09
3.3606555 0.19138481 0.52641249 3 12 1.6812914e+09
10.668763 2.5861418 2.1251333 83 13 1.6812914e+09
3.3642824 0.19099434 0.29175383 4 10 1.6812914e+09
10.675218 2.5699975 1.3420038 83 11 1.6812914e+09
3.3266447 0.18770586 0.057549305 73 8 1.6812914e+09
10.669628 2.5588188 0.57320952 84 9 1.6812914e+09
3.3326399 0.18687409 -0.17367765 73 6 1.6812914e+09
10.666925 2.5522692 -0.19084205 89 7 1.6812914e+09
3.3226573 0.18458048 -0.40372682 52 4 1.6812914e+09
8.9982948 2.1522701 -0.80479974 36 5 1.6812914e+09
3.3627331 0.18444347 -0.64663321 2 2 1.6812914e+09
9.0114918 2.160392 -1.4638826 4 3 1.6812914e+09
3.3457296 0.18118919 -0.88781762 3 0 1.6812914e+09
7.4280467 1.7881269 -1.7530882 11 1 1.6812914e+09
3.4260013 0.18308963 0.78276902 9 14 1.6812914e+09
10.671871 2.5710618 2.927953 82 15 1.6812914e+09
3.3588369 0.17952223 0.52602226 6 12 1.6812914e+09
10.668179 2.546602 2.1232269 80 13 1.6812914e+09
3.3699343 0.17892389 0.29218963 2 10 1.6812914e+09
10.667222 2.5287049 1.3398741 84 11 1.6812914e+09
3.3298066 0.17564221 0.05759294 75 8 1.6812914e+09
10.664357 2.5162494 0.57242453 83 9 1.6812914e+09
3.338289 0.1749168 -0.17394021 69 6 1.6812914e+09
10.661173 2.5115743 -0.19058028 86 7 1.6812914e+09
3.3332243 0.17291017 -0.40494379 56 4 1.6812914e+09
8.9887848 2.1168423 -0.80327755 38 5 1.6812914e+09
3.4908121 0.17918313 -0.67139381 6 2 1.6812914e+09
9.009366 2.1266491 -1.4623164 6 3 1.6812914e+09
3.3415182 0.16926749 -0.88652444 3 0 1.6812914e+09
7.4318728 1.761624 -1.7525266 11 1 1.6812914e+09
3.4169168 0.17005208 0.78052294 11 14 1.6812914e+09
10.653027 2.5252337 2.9201987 80 15 1.6812914e+09
3.3545399 0.16696729 0.52524179 6 12 1.6812914e+09
10.600995 2.4894977 2.107976 73 13 1.6812914e+09
10.673816 0.52562714 0.93191278 32 10 1.6812914e+09
10.562421 2.4649012 1.3255749 75 11 1.6812914e+09
3.3279028 0.16389628 0.057549305 79 8 1.6812914e+09
10.585538 2.458638 0.56771427 76 9 1.6812914e+09
3.3338919 0.16302162 -0.17367765 64 6 1.6812914e+09
10.645527 2.4686873 -0.19014396 81 7 1.6812914e+09
3.3263717 0.16091815 -0.40403107 53 4 1.6812914e+09
8.9864168 2.0831981 -0.80240768 38 5 1.6812914e+09
3.4865134 0.16676477 -0.67044145 7 2 1.6812914e+09
9.0023069 2.0918272 -1.4599674 6 3 1.6812914e+09
6.0752306 0.28505987 -1.6191517 4 0 1.6812914e+09
7.4379768 1.735671 -1.7525266 9 1 1.6812914e+09
3.4198954 0.15883203 0.78108448 11 14 1.6812914e+09
9.9841042 2.3314226 2.7340918 33 15 1.6812914e+09
3.3501413 0.1556157 0.52446133 3 12 1.6812914e+09
10.009108 2.315238 1.9883507 27 13 1.6812914e+09
10.705441 0.48972628 0.93452746 8 10 1.6812914e+09
10.009935 2.2989061 1.2549911 23 11 1.6812914e+09
3.3359189 0.15319982 0.057680197 90 8 1.6812914e+09
9.9949999 2.2863064 0.53552765 27 9 1.6812914e+09
3.3443902 0.15241465 -0.17420276 67 6 1.6812914e+09
9.9596138 2.2727137 -0.17770912 34 7 1.6812914e+09
3.3343241 0.15021782 -0.40494379 49 4 1.6812914e+09
8.9811363 2.0506089 -0.80132043 36 5 1.6812914e+09
