# .PCD v0.7 - Point Cloud Data file format
VERSION 0.7
FIELDS x y z intensity ring timestamp
SIZE 4 4 4 4 2 8
TYPE F F F F U F
COUNT 1 1 1 1 1 1
WIDTH 934
HEIGHT 1
VIEWPOINT 0 0 0 1 0 0 0
POINTS 934
DATA ascii
-0.28725925 -21.882097 4.2431178 12 13 1.6812914e+09
-1.1296912 -5.7299623 0.50790012 4 10 1.6812914e+09
-0.32202026 -21.91098 2.6824863 29 11 1.6812914e+09
-0.61096781 -3.0972784 0.054495137 11 8 1.6812914e+09
-0.091069207 -5.6312637 0.29334304 4 9 1.6812914e+09
-0.58994871 -2.9855533 -0.15818714 14 6 1.6812914e+09
-0.091408543 -5.5280895 -0.095900968 92 7 1.6812914e+09
-0.58843523 -2.9697938 -0.36691374 39 4 1.6812914e+09
-0.091458723 -5.5305133 -0.47992247 95 5 1.6812914e+09
-0.59128457 -2.9733355 -0.58139849 35 2 1.6812914e+09
-0.089744084 -5.5426292 -0.87347472 71 3 1.6812914e+09
nan nan nan 0 0 1.6812914e+09
-0.083976418 -5.6103234 -1.285336 2 1 1.6812914e+09
-4.3598146 -21.70928 5.0958605 73 14 1.6812914e+09
-0.31783167 -21.878811 5.8455672 33 15 1.6812914e+09
-4.3667064 -21.743521 3.4991407 68 12 1.6812914e+09
-0.36368051 -21.883413 4.2435946 29 13 1.6812914e+09
-1.1472309 -5.7137756 0.50681067 7 10 1.6812914e+09
-0.39850187 -21.909721 2.6824863 61 11 1.6812914e+09
-0.62128192 -3.0926764 0.054451503 11 8 1.6812914e+09
-0.1105372 -5.6209269 0.29281965 6 9 1.6812914e+09
-0.59937888 -2.9785812 -0.15792458 12 6 1.6812914e+09
-0.11084859 -5.5352354 -0.096031867 90 7 1.6812914e+09
-0.59732175 -2.9604251 -0.36600104 32 4 1.6812914e+09
-0.11085887 -5.5351405 -0.48035738 95 5 1.6812914e+09
-0.60165977 -2.9712536 -0.58139849 39 2 1.6812914e+09
-0.10885824 -5.5299397 -0.87151712 74 3 1.6812914e+09
nan nan nan 0 0 1.6812914e+09
-0.10377429 -5.6221747 -1.2881436 13 1 1.6812914e+09
-4.4432631 -21.712248 5.1003523 63 14 1.6812914e+09
-0.40049389 -22.015135 5.882401 23 15 1.6812914e+09
-4.4488473 -21.739466 3.501092 68 12 1.6812914e+09
-0.44807145 -22.090496 4.2841048 39 13 1.6812914e+09
-1.1716647 -5.7266111 0.50833589 9 10 1.6812914e+09
-0.48320568 -22.111544 2.7074342 39 11 1.6812914e+09
-0.63361824 -3.0952759 0.054538768 15 8 1.6812914e+09
-0.13108197 -5.6179881 0.29268882 27 9 1.6812914e+09
-0.60928619 -2.9714735 -0.15766202 12 6 1.6812914e+09
-0.13022116 -5.4948077 -0.09533377 22 7 1.6812914e+09
-0.60816818 -2.9582162 -0.36600104 34 4 1.6812914e+09
-0.13086075 -5.5222468 -0.47927007 28 5 1.6812914e+09
-0.61204863 -2.966625 -0.58092231 39 2 1.6812914e+09
-0.12912574 -5.5295033 -0.87151712 45 3 1.6812914e+09
nan nan nan 0 0 1.6812914e+09
-0.1239131 -5.5998373 -1.2830899 35 1 1.6812914e+09
-4.5230012 -21.715685 5.1048446 63 14 1.6812914e+09
-0.47837543 -22.06189 5.8953247 32 15 1.6812914e+09
-4.5292382 -21.745562 3.5046039 69 12 1.6812914e+09
-0.52442724 -22.056898 4.2779088 36 13 1.6812914e+09
-1.1896133 -5.7127337 0.50746429 11 10 1.6812914e+09
-0.56013697 -22.0998 2.7062171 40 11 1.6812914e+09
-0.64186311 -3.080811 0.054320611 22 8 1.6812914e+09
-0.15036702 -5.6050177 0.29203463 43 9 1.6812914e+09
-0.61914343 -2.9668849 -0.15753075 18 6 1.6812914e+09
-0.1498619 -5.5118113 -0.095639184 2 7 1.6812914e+09
-0.61849058 -2.956075 -0.36600104 40 4 1.6812914e+09
-0.15007055 -5.5192666 -0.47905263 2 5 1.6812914e+09
-0.6224004 -2.9644704 -0.58092231 35 2 1.6812914e+09
-0.1481055 -5.5166764 -0.86955953 2 3 1.6812914e+09
nan nan nan 0 0 1.6812914e+09
-0.14370088 -5.6091118 -1.285336 2 1 1.6812914e+09
-4.6013017 -21.711679 5.1076522 63 14 1.6812914e+09
-0.55484051 -22.038359 5.8895092 32 15 1.6812914e+09
-4.6081896 -21.74411 3.5069449 66 12 1.6812914e+09
-0.60174888 -22.067202 4.280292 34 13 1.6812914e+09
-1.2136828 -5.7280364 0.50920743 7 10 1.6812914e+09
-0.63706321 -22.090269 2.7053044 39 11 1.6812914e+09
-0.65261316 -3.078552 0.054320611 26 8 1.6812914e+09
-0.1700049 -5.6069541 0.29216546 32 9 1.6812914e+09
-0.6305359 -2.9695895 -0.1577933 18 6 1.6812914e+09
-0.16939916 -5.5212488 -0.095813707 3 7 1.6812914e+09
-0.63035953 -2.9611783 -0.36691374 41 4 1.6812914e+09
-0.16822068 -5.4813685 -0.4757908 1 5 1.6812914e+09
-0.63171649 -2.9574802 -0.57996994 22 2 1.6812914e+09
-0.16692446 -5.5013175 -0.86721045 1 3 1.6812914e+09
nan nan nan 0 0 1.6812914e+09
-0.16334835 -5.611011 -1.2858975 9 1 1.6812914e+09
-4.68117 -21.714537 5.1121445 61 14 1.6812914e+09
-0.63128448 -22.01939 5.8849859 23 15 1.6812914e+09
-4.6887484 -21.749619 3.5104573 68 12 1.6812914e+09
-0.67787474 -22.03553 4.2745728 30 13 1.6812914e+09
-1.2315682 -5.7140279 0.50833589 4 10 1.6812914e+09
-0.71345168 -22.065586 2.7025661 39 11 1.6812914e+09
-0.6617707 -3.0689256 0.054189719 28 8 1.6812914e+09
-0.18924643 -5.5963454 0.2916421 18 9 1.6812914e+09
-0.64301163 -2.9771302 -0.1583184 25 6 1.6812914e+09
-0.18858756 -5.5181246 -0.095770068 4 7 1.6812914e+09
-0.6396392 -2.9541101 -0.36630529 42 4 1.6812914e+09
-0.18810029 -5.5031505 -0.47774792 2 5 1.6812914e+09
-0.63994652 -2.9456651 -0.57806528 20 2 1.6812914e+09
-0.18669668 -5.5179768 -0.86995107 2 3 1.6812914e+09
nan nan nan 0 0 1.6812914e+09
-0.18285605 -5.6079717 -1.285336 41 1 1.6812914e+09
-4.7605925 -21.714722 5.1160755 61 14 1.6812914e+09
-0.70929939 -22.053257 5.8946791 33 15 1.6812914e+09
-4.7678132 -21.747589 3.5127983 68 12 1.6812914e+09
-0.75579113 -22.062462 4.280292 36 13 1.6812914e+09
-1.2520404 -5.7121263 0.50855374 4 10 1.6812914e+09
-0.79126555 -22.085281 2.7053044 39 11 1.6812914e+09
-0.67301589 -3.0690379 0.05423335 28 8 1.6812914e+09
-0.20887122 -5.598146 0.29177293 25 9 1.6812914e+09
-0.65178895 -2.9675531 -0.15792458 30 6 1.6812914e+09
-0.20867655 -5.5399146 -0.096162751 3 7 1.6812914e+09
-0.650482 -2.9542828 -0.36660951 42 4 1.6812914e+09
-0.20740043 -5.5049491 -0.47796535 3 5 1.6812914e+09
-0.64863259 -2.9362252 -0.57663679 13 2 1.6812914e+09
-0.20604692 -5.5197582 -0.87034255 2 3 1.6812914e+09
nan nan nan 0 0 1.6812914e+09
-0.20191519 -5.5926914 -1.2819668 34 1 1.6812914e+09
-4.8406029 -21.716991 5.1205673 60 14 1.6812914e+09
-0.78559101 -22.031342 5.8895092 32 15 1.6812914e+09
-4.8479977 -21.750097 3.5159204 67 12 1.6812914e+09
-0.83325934 -22.071953 4.2826753 35 13 1.6812914e+09
-1.2730565 -5.7125826 0.50898951 8 10 1.6812914e+09
-0.86864376 -22.089823 2.7062171 39 11 1.6812914e+09
-0.68263417 -3.0617909 0.054146089 32 8 1.6812914e+09
-0.22831137 -5.5948882 0.2916421 25 9 1.6812914e+09
-0.66323459 -2.9701324 -0.15818714 25 6 1.6812914e+09
-0.2282147 -5.5441475 -0.096250013 25 7 1.6812914e+09
-0.6613338 -2.9544151 -0.36691374 32 4 1.6812914e+09
-0.22721732 -5.5191216 -0.47927007 6 5 1.6812914e+09
-0.65672141 -2.9243655 -0.57473212 21 2 1.6812914e+09
-0.22531325 -5.5190058 -0.87034255 2 3 1.6812914e+09
nan nan nan 0 0 1.6812914e+09
-0.2214361 -5.5919528 -1.2819668 30 1 1.6812914e+09
-4.9206882 -21.718969 5.1250596 62 14 1.6812914e+09
-0.86286581 -22.038118 5.8920941 32 15 1.6812914e+09
-4.9271646 -21.74749 3.5182614 67 12 1.6812914e+09
-0.90999776 -22.061552 4.2812452 35 13 1.6812914e+09
-1.2957442 -5.7202482 0.51007897 9 10 1.6812914e+09
-0.94627452 -22.099052 2.7077384 36 11 1.6812914e+09
-0.69387156 -3.0618272 0.054189719 33 8 1.6812914e+09
-0.24773133 -5.5915627 0.29151127 25 9 1.6812914e+09
-0.67138237 -2.9580617 -0.15766202 19 6 1.6812914e+09
-0.24842358 -5.5407763 -0.096206382 75 7 1.6812914e+09
-0.66998702 -2.9448307 -0.36600104 21 4 1.6812914e+09
-0.24755388 -5.5207405 -0.47948754 30 5 1.6812914e+09
-0.66528291 -2.9148784 -0.57330364 30 2 1.6812914e+09
-0.24543495 -5.53792 -0.87347472 9 3 1.6812914e+09
nan nan nan 0 0 1.6812914e+09
-0.24203345 -5.5935378 -1.2825284 11 1 1.6812914e+09
-4.9992051 -21.713531 5.1278672 60 14 1.6812914e+09
-0.93968552 -22.032557 5.8914475 25 15 1.6812914e+09
-5.0085897 -21.754223 3.5221636 67 12 1.6812914e+09
-0.98711061 -22.060696 4.2817216 34 13 1.6812914e+09
-1.3150216 -5.7081795 0.50942528 11 10 1.6812914e+09
-1.0232946 -22.093138 2.7074342 38 11 1.6812914e+09
-0.70508903 -3.0592637 0.054189719 28 8 1.6812914e+09
-0.26810616 -5.5881233 0.29138041 23 9 1.6812914e+09
-0.6833455 -2.9604459 -0.15792458 12 6 1.6812914e+09
-0.26835608 -5.5523596 -0.096424542 59 7 1.6812914e+09
-0.67853284 -2.9326863 -0.36478406 20 4 1.6812914e+09
-0.26765066 -5.5372567 -0.48100972 38 5 1.6812914e+09
-0.67489785 -2.9101479 -0.57282746 33 2 1.6812914e+09
-0.2649962 -5.5419626 -0.87425774 19 3 1.6812914e+09
nan nan nan 0 0 1.6812914e+09
-0.2613335 -5.5877914 -1.2814053 11 1 1.6812914e+09
-5.0831995 -21.714039 5.1323595 61 14 1.6812914e+09
-1.0208776 -22.038616 5.8940325 33 15 1.6812914e+09
-5.0922303 -21.752548 3.5248952 67 12 1.6812914e+09
-1.0681969 -22.061832 4.2826753 35 13 1.6812914e+09
-1.3372121 -5.7132545 0.51029688 11 10 1.6812914e+09
-1.1012684 -22.106775 2.7095637 42 11 1.6812914e+09
-0.71576357 -3.0567837 0.054189719 28 8 1.6812914e+09
-0.28798965 -5.5946336 0.29177293 23 9 1.6812914e+09
-0.690247 -2.9434607 -0.15713692 12 6 1.6812914e+09
-0.28799045 -5.5563822 -0.096511796 45 7 1.6812914e+09
-0.68705833 -2.9230545 -0.36387137 20 4 1.6812914e+09
-0.28685078 -5.5338011 -0.48079225 36 5 1.6812914e+09
-0.68448782 -2.9053857 -0.57235128 35 2 1.6812914e+09
-0.28471309 -5.5484014 -0.87543225 26 3 1.6812914e+09
nan nan nan 0 0 1.6812914e+09
-0.28083691 -5.5868454 -1.2814053 12 1 1.6812914e+09
-5.1602478 -21.718393 5.137413 61 14 1.6812914e+09
-1.0947893 -22.051994 5.8985558 32 15 1.6812914e+09
-5.168334 -21.752363 3.5276272 66 12 1.6812914e+09
-1.1413507 -22.058168 4.2826753 35 13 1.6812914e+09
-1.3588771 -5.7158198 0.51095051 11 10 1.6812914e+09
-1.178297 -22.100321 2.7092595 40 11 1.6812914e+09
-0.72531694 -3.0519617 0.054146089 29 8 1.6812914e+09
-0.30654052 -5.593648 0.29177293 20 9 1.6812914e+09
-0.70348066 -2.9557259 -0.15792458 20 6 1.6812914e+09
-0.30683991 -5.5453596 -0.096337281 42 7 1.6812914e+09
-0.6938619 -2.9086931 -0.36235017 21 4 1.6812914e+09
-0.30506489 -5.530333 -0.48057485 27 5 1.6812914e+09
-0.69405282 -2.9005921 -0.5718751 33 2 1.6812914e+09
-0.30381268 -5.5424428 -0.87464929 29 3 1.6812914e+09
nan nan nan 0 0 1.6812914e+09
-0.29949036 -5.588316 -1.2819668 15 1 1.6812914e+09
-5.2411718 -21.721561 5.142467 59 14 1.6812914e+09
-1.1711202 -22.035978 5.8953247 30 15 1.6812914e+09
-5.2477088 -21.748589 3.5299683 68 12 1.6812914e+09
-1.2187457 -22.061401 4.2841048 34 13 1.6812914e+09
-1.3813328 -5.7258077 0.51225787 8 10 1.6812914e+09
-1.2559954 -22.105982 2.7104764 38 11 1.6812914e+09
-0.73714137 -3.0542703 0.05423335 28 8 1.6812914e+09
-0.32606414 -5.5925441 0.29177293 19 9 1.6812914e+09
-0.71085429 -2.9411206 -0.1572682 12 6 1.6812914e+09
-0.32633972 -5.5467496 -0.096380912 39 7 1.6812914e+09
-0.69932616 -2.8869627 -0.35991624 33 4 1.6812914e+09
-0.32562095 -5.5341501 -0.48100972 12 5 1.6812914e+09
-0.70940107 -2.9196124 -0.57616061 19 2 1.6812914e+09
-0.32315758 -5.5413489 -0.87464929 30 3 1.6812914e+09
nan nan nan 0 0 1.6812914e+09
-0.31969601 -5.5823164 -1.2808437 16 1 1.6812914e+09
-5.3204417 -21.717333 5.1458364 57 14 1.6812914e+09
-1.2491215 -22.051048 5.9004946 29 15 1.6812914e+09
-5.3288832 -21.751724 3.5334802 67 12 1.6812914e+09
-1.2963206 -22.066813 4.2860112 32 13 1.6812914e+09
-1.4023097 -5.7207065 0.51225787 4 10 1.6812914e+09
-1.3333009 -22.103941 2.7107806 34 11 1.6812914e+09
-0.74773431 -3.0491209 0.054189719 28 8 1.6812914e+09
-0.34625483 -5.5863271 0.29151127 18 9 1.6812914e+09
-0.72461319 -2.9506164 -0.15792458 12 6 1.6812914e+09
-0.34569949 -5.545577 -0.096380912 35 7 1.6812914e+09
-0.70871383 -2.8795617 -0.35930774 34 4 1.6812914e+09
-0.34524259 -5.5379519 -0.48144463 12 5 1.6812914e+09
-0.72076654 -2.9218836 -0.57711297 23 2 1.6812914e+09
-0.34219792 -5.5352583 -0.8738662 28 3 1.6812914e+09
nan nan nan 0 0 1.6812914e+09
-0.33976305 -5.5908937 -1.2830899 18 1 1.6812914e+09
-5.4064779 -21.723688 5.1520133 57 14 1.6812914e+09
-1.3297893 -22.043907 5.899848 32 15 1.6812914e+09
-5.4103613 -21.739235 3.5346508 67 12 1.6812914e+09
-1.3781049 -22.076607 4.2888708 36 13 1.6812914e+09
-1.4222701 -5.7157764 0.51225787 4 10 1.6812914e+09
-1.4106076 -22.101629 2.7110851 35 11 1.6812914e+09
-0.75897825 -3.0489173 0.05423335 27 8 1.6812914e+09
-0.36575261 -5.5850849 0.29151127 18 9 1.6812914e+09
-0.73430318 -2.9456472 -0.1577933 16 6 1.6812914e+09
-0.36489287 -5.541842 -0.096337281 32 7 1.6812914e+09
-0.71996671 -2.8818846 -0.35991624 32 4 1.6812914e+09
-0.36408675 -5.5292568 -0.48079225 12 5 1.6812914e+09
-0.73454624 -2.9336319 -0.57996994 34 2 1.6812914e+09
-0.36167639 -5.5364938 -0.87425774 19 3 1.6812914e+09
nan nan nan 0 0 1.6812914e+09
-0.35896832 -5.5848103 -1.2819668 16 1 1.6812914e+09
-5.4820638 -21.719812 5.1553822 59 14 1.6812914e+09
-1.4034939 -22.049019 5.9024329 33 15 1.6812914e+09
-5.4890709 -21.747513 3.5389433 66 12 1.6812914e+09
-1.451948 -22.081713 4.2907772 35 13 1.6812914e+09
-1.4434341 -5.7156057 0.51269364 6 10 1.6812914e+09
-1.4882467 -22.103998 2.7119977 35 11 1.6812914e+09
-0.770311 -3.0512302 0.054320611 27 8 1.6812914e+09
-0.38444078 -5.5863318 0.2916421 16 9 1.6812914e+09
-0.74468046 -2.9456155 -0.15792458 16 6 1.6812914e+09
-0.3845771 -5.5455217 -0.096424542 28 7 1.6812914e+09
-0.73868155 -2.9155569 -0.36447984 19 4 1.6812914e+09
-0.38259029 -5.5305033 -0.48100972 19 5 1.6812914e+09
-0.74720514 -2.9405632 -0.58187461 35 2 1.6812914e+09
-0.38100016 -5.5351977 -0.87425774 7 3 1.6812914e+09
nan nan nan 0 0 1.6812914e+09
-0.37764859 -5.5860205 -1.2825284 16 1 1.6812914e+09
-5.5657067 -21.73122 5.1626816 60 14 1.6812914e+09
-1.4812574 -22.056034 5.9056644 30 15 1.6812914e+09
-5.5704656 -21.749748 3.5424554 64 12 1.6812914e+09
-1.5285116 -22.069164 4.2893476 34 13 1.6812914e+09
-1.4617611 -5.708375 0.51247573 9 10 1.6812914e+09
-1.5655699 -22.101143 2.712302 33 11 1.6812914e+09
-0.78157878 -3.0509439 0.054364245 28 8 1.6812914e+09
-0.40393841 -5.5849562 0.2916421 16 9 1.6812914e+09
-0.75184941 -2.9309089 -0.1572682 13 6 1.6812914e+09
-0.40465054 -5.5541186 -0.096599065 32 7 1.6812914e+09
-0.74761587 -2.9081552 -0.36387137 28 4 1.6812914e+09
-0.40285802 -5.5290647 -0.48100972 28 5 1.6812914e+09
-0.75930732 -2.9450655 -0.58330315 38 2 1.6812914e+09
-0.40102372 -5.5436854 -0.8758238 2 3 1.6812914e+09
nan nan nan 0 0 1.6812914e+09
-0.39846221 -5.5894585 -1.2836514 18 1 1.6812914e+09
-5.6439805 -21.721092 5.164928 61 14 1.6812914e+09
-1.5580685 -22.048321 5.9050179 29 15 1.6812914e+09
-5.6513224 -21.749292 3.5455775 66 12 1.6812914e+09
-1.6051828 -22.058798 4.288394 29 13 1.6812914e+09
-1.4851832 -5.7126203 0.51334733 11 10 1.6812914e+09
-1.6434413 -22.105442 2.7135189 39 11 1.6812914e+09
-0.79275572 -3.0480585 0.054364245 29 8 1.6812914e+09
-0.42440557 -5.5834379 0.2916421 16 9 1.6812914e+09
-0.76384795 -2.9329648 -0.15753075 21 6 1.6812914e+09
-0.42347074 -5.5451946 -0.096468166 34 7 1.6812914e+09
-0.76580584 -2.9342029 -0.36752224 32 4 1.6812914e+09
-0.42253083 -5.5325918 -0.48144463 27 5 1.6812914e+09
-0.76958287 -2.9423974 -0.58330315 39 2 1.6812914e+09
-0.41981825 -5.5348649 -0.87464929 7 3 1.6812914e+09
nan nan nan 0 0 1.6812914e+09
-0.41833004 -5.5928931 -1.2847744 18 1 1.6812914e+09
-5.7316341 -21.730883 5.1722283 60 14 1.6812914e+09
-1.6392264 -22.047281 5.9063106 32 15 1.6812914e+09
-5.7366691 -21.74992 3.5490892 64 12 1.6812914e+09
-1.6867681 -22.062555 4.2903004 35 13 1.6812914e+09
-1.5089294 -5.721849 0.51465464 11 10 1.6812914e+09
-1.7256061 -22.114113 2.7153444 36 11 1.6812914e+09
-0.80402958 -3.0476894 0.054407872 28 8 1.6812914e+09
-0.44369695 -5.5794334 0.29151127 16 9 1.6812914e+09
-0.77472013 -2.932694 -0.15766202 11 6 1.6812914e+09
-0.44361243 -5.5536499 -0.096642695 32 7 1.6812914e+09
-0.77667981 -2.9339104 -0.36782649 32 4 1.6812914e+09
-0.44184059 -5.5310831 -0.48144463 27 5 1.6812914e+09
-0.78036219 -2.9395568 -0.58330315 40 2 1.6812914e+09
-0.44087663 -5.5431352 -0.87621534 16 3 1.6812914e+09
nan nan nan 0 0 1.6812914e+09
-0.43747395 -5.5865407 -1.2836514 18 1 1.6812914e+09
-5.8106022 -21.722509 5.1750355 62 14 1.6812914e+09
-1.7158018 -22.036606 5.9050179 32 15 1.6812914e+09
-5.8170238 -21.746462 3.5518208 67 12 1.6812914e+09
-1.7618194 -22.03207 4.2855344 33 13 1.6812914e+09
-1.5295374 -5.7189527 0.51487255 11 10 1.6812914e+09
-1.7935348 -21.994188 2.7013493 32 11 1.6812914e+09
-0.81531048 -3.0472784 0.054451503 28 8 1.6812914e+09
-0.4637838 -5.5853157 0.29190379 15 9 1.6812914e+09
-0.79077923 -2.9516718 -0.1588435 11 6 1.6812914e+09
-0.46217287 -5.5421028 -0.096468166 18 7 1.6812914e+09
-0.78691638 -2.9311814 -0.36782649 33 4 1.6812914e+09
-0.46216965 -5.5419173 -0.48253191 25 5 1.6812914e+09
-0.78997898 -2.9344454 -0.58282697 33 2 1.6812914e+09
-0.4606277 -5.5464845 -0.87699836 22 3 1.6812914e+09
nan nan nan 0 0 1.6812914e+09
-0.45756194 -5.5922647 -1.285336 18 1 1.6812914e+09
-5.8914952 -21.720903 5.1795278 63 14 1.6812914e+09
-1.7671207 -21.715149 5.8203654 25 15 1.6812914e+09
-5.9013033 -21.757006 3.5568941 67 12 1.6812914e+09
-1.8130547 -21.717628 4.2254834 28 13 1.6812914e+09
-1.5527537 -5.7255964 0.515962 11 10 1.6812914e+09
-1.8554021 -21.812241 2.6797483 27 11 1.6812914e+09
-0.82725406 -3.0492382 0.054538768 28 8 1.6812914e+09
-0.48306409 -5.5811749 0.29177293 15 9 1.6812914e+09
-0.80107766 -2.9488938 -0.1588435 1 6 1.6812914e+09
-0.48365936 -5.5653605 -0.096904479 7 7 1.6812914e+09
-0.79844946 -2.9332044 -0.36843497 42 4 1.6812914e+09
-0.48129815 -5.5377889 -0.48231447 7 5 1.6812914e+09
-0.80086488 -2.9340372 -0.58330315 27 2 1.6812914e+09
-0.47914213 -5.5350018 -0.87543225 9 3 1.6812914e+09
nan nan nan 0 0 1.6812914e+09
-0.47749004 -5.5954881 -1.2864591 18 1 1.6812914e+09
-5.9756794 -21.730742 5.1868277 64 14 1.6812914e+09
-1.8168281 -21.400827 5.7376513 22 15 1.6812914e+09
-5.981143 -21.750557 3.5592351 67 12 1.6812914e+09
-1.9221656 -22.095026 4.3003087 36 13 1.6812914e+09
-1.5766959 -5.7345481 0.51726931 8 10 1.6812914e+09
-1.9581779 -22.107191 2.7168655 40 11 1.6812914e+09
-0.83656442 -3.0415123 0.054451503 28 8 1.6812914e+09
-0.50254315 -5.5794549 0.29177293 15 9 1.6812914e+09
-0.81335908 -2.9532993 -0.15923734 1 6 1.6812914e+09
-0.50308317 -5.5636377 -0.096904479 4 7 1.6812914e+09
-0.8080219 -2.9280078 -0.36813071 38 4 1.6812914e+09
-0.50195926 -5.5509586 -0.48361918 7 5 1.6812914e+09
-0.81372523 -2.9406838 -0.58520782 18 2 1.6812914e+09
-0.50131345 -5.5652676 -0.88052201 1 3 1.6812914e+09
nan nan nan 0 0 1.6812914e+09
-0.49723262 -5.5962143 -1.2870206 18 1 1.6812914e+09
-6.0573864 -21.730871 5.1918817 64 14 1.6812914e+09
-1.9485918 -22.041487 5.9114799 33 15 1.6812914e+09
-6.0629992 -21.750954 3.562747 66 12 1.6812914e+09
-1.9999421 -22.095514 4.3017387 34 13 1.6812914e+09
-1.595365 -5.7242117 0.51683354 6 10 1.6812914e+09
-2.0364695 -22.112576 2.7183867 39 11 1.6812914e+09
-0.84919393 -3.0457959 0.054582395 28 8 1.6812914e+09
-0.52293837 -5.5876107 0.29229632 14 9 1.6812914e+09
-0.82299036 -2.9480379 -0.15910606 2 6 1.6812914e+09
-0.52342784 -5.5718031 -0.097079009 3 7 1.6812914e+09
-0.81957734 -2.9299481 -0.36873919 36 4 1.6812914e+09
-0.5217945 -5.5541325 -0.48405412 4 5 1.6812914e+09
-0.82265687 -2.9331 -0.58425546 11 2 1.6812914e+09
-0.52005249 -5.5561075 -0.87934744 2 3 1.6812914e+09
nan nan nan 0 0 1.6812914e+09
-0.51565367 -5.5823145 -1.2842129 18 1 1.6812914e+09
-6.1398292 -21.733038 5.1974969 62 14 1.6812914e+09
-2.0268426 -22.048983 5.9153576 33 15 1.6812914e+09
-6.1462741 -21.755798 3.5670395 67 12 1.6812914e+09
-2.077287 -22.090841 4.3022151 35 13 1.6812914e+09
-1.6187249 -5.7305903 0.517923 6 10 1.6812914e+09
-2.1141155 -22.11027 2.7189951 38 11 1.6812914e+09
-0.86118269 -3.0476234 0.05466966 29 8 1.6812914e+09
-0.54243964 -5.5857506 0.29229632 16 9 1.6812914e+09
-0.83940518 -2.9667642 -0.16028754 2 6 1.6812914e+09
-0.53782445 -5.5176935 -0.096162751 2 7 1.6812914e+09
-0.83115608 -2.9318433 -0.36934766 30 4 1.6812914e+09
-0.53926229 -5.5324459 -0.48231447 1 5 1.6812914e+09
-0.83490741 -2.9372916 -0.585684 11 2 1.6812914e+09
-0.53021413 -5.4584055 -0.86407828 2 3 1.6812914e+09
nan nan nan 0 0 1.6812914e+09
-0.53559756 -5.5853305 -1.285336 15 1 1.6812914e+09
-6.2210193 -21.730207 5.2019892 61 14 1.6812914e+09
-2.1042533 -22.046579 5.9166498 30 15 1.6812914e+09
-6.2303362 -21.762697 3.5717223 66 12 1.6812914e+09
-2.1524835 -22.063917 4.2984023 27 13 1.6812914e+09
-1.6380326 -5.7225113 0.51770514 7 10 1.6812914e+09
-2.1895721 -22.085472 2.7168655 35 11 1.6812914e+09
-0.87181568 -3.0445986 0.05466966 28 8 1.6812914e+09
-0.56143826 -5.5788546 0.29203463 19 9 1.6812914e+09
-0.84768772 -2.9566174 -0.15989371 6 6 1.6812914e+09
-0.55733073 -5.5182695 -0.096206382 2 7 1.6812914e+09
-0.84207141 -2.9313087 -0.36965191 20 4 1.6812914e+09
-0.55708146 -5.5156603 -0.48100972 2 5 1.6812914e+09
-0.84855843 -2.9461491 -0.58806479 15 2 1.6812914e+09
-0.55514997 -5.5154877 -0.87347472 2 3 1.6812914e+09
nan nan nan 0 0 1.6812914e+09
-0.55819756 -5.614944 -1.2926358 4 1 1.6812914e+09
-6.3036227 -21.731754 5.2076039 61 14 1.6812914e+09
-2.1835709 -22.063135 5.9231114 30 15 1.6812914e+09
-6.3131456 -21.764534 3.5756245 69 12 1.6812914e+09
-2.2321973 -22.083126 4.3036451 33 13 1.6812914e+09
-1.6559147 -5.7095833 0.51705146 9 10 1.6812914e+09
-2.2701921 -22.112253 2.7211249 38 11 1.6812914e+09
-0.88174021 -3.0391366 0.054626029 27 8 1.6812914e+09
-0.58116537 -5.5793443 0.29216546 16 9 1.6812914e+09
-0.86149192 -2.9656258 -0.16055009 2 6 1.6812914e+09
-0.57633185 -5.513804 -0.096162751 9 7 1.6812914e+09
-0.85368818 -2.9331162 -0.37026042 19 4 1.6812914e+09
-0.57427639 -5.4938641 -0.47927007 3 5 1.6812914e+09
-0.85677069 -2.9361024 -0.5866363 34 2 1.6812914e+09
-0.57516068 -5.5208845 -0.87464929 2 3 1.6812914e+09
nan nan nan 0 0 1.6812914e+09
-0.35087833 -3.3905926 -0.77771527 3 1 1.6812914e+09
-6.3804593 -21.727093 5.211535 62 14 1.6812914e+09
-2.2567229 -22.055773 5.9231114 32 15 1.6812914e+09
-6.3922443 -21.767172 3.5795267 69 12 1.6812914e+09
-2.3056695 -22.078045 4.3041215 33 13 1.6812914e+09
-1.6776483 -5.7136183 0.517923 11 10 1.6812914e+09
-2.3442903 -22.112007 2.7220378 40 11 1.6812914e+09
-0.89322501 -3.040992 0.05471329 28 8 1.6812914e+09
-0.60019368 -5.5823512 0.29242715 14 9 1.6812914e+09
-0.86779302 -2.9507787 -0.15989371 2 6 1.6812914e+09
-0.59344321 -5.4918761 -0.095813707 28 7 1.6812914e+09
-0.86622077 -2.9397883 -0.37147737 34 4 1.6812914e+09
-0.5921225 -5.4794445 -0.47818282 11 5 1.6812914e+09
-0.86859232 -2.940305 -0.58806479 36 2 1.6812914e+09
-0.36818522 -3.4074597 -0.53794456 3 3 1.6812914e+09
nan nan nan 0 0 1.6812914e+09
-0.35733742 -3.3384717 -0.7659232 4 1 1.6812914e+09
-6.4639044 -21.730373 5.2177114 62 14 1.6812914e+09
-2.335474 -22.064571 5.9276352 33 15 1.6812914e+09
-6.474525 -21.766026 3.5830388 66 12 1.6812914e+09
-2.384037 -22.082064 4.3065047 33 13 1.6812914e+09
-1.7028452 -5.7217522 0.51923037 11 10 1.6812914e+09
-2.4228094 -22.116022 2.7235587 39 11 1.6812914e+09
-0.90365022 -3.0353024 0.05466966 27 8 1.6812914e+09
-0.62119788 -5.5850768 0.29268882 16 9 1.6812914e+09
-0.88431811 -2.9667151 -0.16094391 2 6 1.6812914e+09
-1.1934752 -10.734399 -0.18791878 1 7 1.6812914e+09
-0.87698972 -2.9365938 -0.37147737 34 4 1.6812914e+09
-0.61042315 -5.4699183 -0.47753045 7 5 1.6812914e+09
-0.87955558 -2.939606 -0.58854097 36 2 1.6812914e+09
-0.37169105 -3.330071 -0.5258075 8 3 1.6812914e+09
nan nan nan 0 0 1.6812914e+09
-0.35656342 -3.2233825 -0.73953146 8 1 1.6812914e+09
-6.5498362 -21.72753 5.2227654 60 14 1.6812914e+09
-2.4171164 -22.063063 5.9295735 25 15 1.6812914e+09
-6.5635257 -21.772886 3.5881116 43 12 1.6812914e+09
-2.4652276 -22.075615 4.3069811 29 13 1.6812914e+09
-1.7256851 -5.7253103 0.5201019 11 10 1.6812914e+09
-2.5016224 -22.087269 2.7211249 34 11 1.6812914e+09
-0.91568571 -3.0369153 0.054756925 29 8 1.6812914e+09
-0.64182013 -5.5927973 0.29321218 11 9 1.6812914e+09
-0.89611435 -2.9683897 -0.16120647 2 6 1.6812914e+09
nan nan nan 0 7 1.6812914e+09
-0.88651532 -2.9311397 -0.37117311 32 4 1.6812914e+09
-1.2431873 -10.837238 -0.9494071 1 5 1.6812914e+09
-0.88961029 -2.9340141 -0.58806479 33 2 1.6812914e+09
-0.3755084 -3.2550879 -0.51406199 9 3 1.6812914e+09
nan nan nan 0 0 1.6812914e+09
-0.360174 -3.1543357 -0.72380865 11 1 1.6812914e+09
-6.6348882 -21.734823 5.2300653 62 14 1.6812914e+09
-2.4941163 -22.054493 5.9295735 35 15 1.6812914e+09
-6.645256 -21.768736 3.5912335 39 12 1.6812914e+09
-2.5433922 -22.076628 4.3088875 34 13 1.6812914e+09
-1.7507538 -5.7359238 0.52162713 11 10 1.6812914e+09
-2.5833039 -22.117836 2.7259927 38 11 1.6812914e+09
-0.92554981 -3.0313101 0.05471329 28 8 1.6812914e+09
-0.66221255 -5.5979609 0.2936047 11 9 1.6812914e+09
-0.9035458 -2.9556952 -0.16068137 2 6 1.6812914e+09
-1.2853507 -10.869786 -0.19044937 1 7 1.6812914e+09
-0.89819747 -2.9327719 -0.37178159 30 4 1.6812914e+09
-0.86950278 -7.3403711 -0.6423611 1 5 1.6812914e+09
-0.89840323 -2.9261997 -0.58711249 29 2 1.6812914e+09
-0.38110691 -3.2047114 -0.50623161 8 3 1.6812914e+09
nan nan nan 0 0 1.6812914e+09
-0.37315139 -3.1699984 -0.72773939 4 1 1.6812914e+09
-6.7179122 -21.734804 5.2356806 61 14 1.6812914e+09
-2.5735989 -22.067242 5.9353895 32 15 1.6812914e+09
-6.7284961 -21.768995 3.5951357 47 12 1.6812914e+09
-2.6215942 -22.077366 4.3107939 28 13 1.6812914e+09
-1.7781258 -5.7535701 0.52380598 11 10 1.6812914e+09
-2.6510201 -22.062338 2.7202122 32 11 1.6812914e+09
-0.93834406 -3.0352237 0.054844182 28 8 1.6812914e+09
-0.68174905 -5.5956144 0.2936047 9 9 1.6812914e+09
-0.91311806 -2.950139 -0.16055009 2 6 1.6812914e+09
-0.89051491 -7.2994471 -0.1277516 1 7 1.6812914e+09
-0.91211057 -2.9414668 -0.37330279 12 4 1.6812914e+09
-0.43511778 -3.5471301 -0.30900308 2 5 1.6812914e+09
-0.91393727 -2.941951 -0.59092176 9 2 1.6812914e+09
-0.38788131 -3.1715627 -0.50114191 9 3 1.6812914e+09
nan nan nan 0 0 1.6812914e+09
-0.37610248 -3.1009488 -0.71201658 1 1 1.6812914e+09
-6.7957683 -21.731009 5.2401729 63 14 1.6812914e+09
-2.6114359 -21.763643 5.855906 1 15 1.6812914e+09
-6.8058085 -21.763063 3.5978673 43 12 1.6812914e+09
-2.6659856 -21.832243 4.2645645 1 13 1.6812914e+09
-1.8004316 -5.7544584 0.52445966 7 10 1.6812914e+09
-2.7033815 -21.853472 2.6955688 23 11 1.6812914e+09
-0.94915152 -3.0344808 0.054887816 28 8 1.6812914e+09
-0.70184177 -5.6057115 0.29425889 8 9 1.6812914e+09
-0.92588562 -2.9566228 -0.16107519 2 6 1.6812914e+09
-0.91784823 -7.3111763 -0.1280134 1 7 1.6812914e+09
nan nan nan 0 4 1.6812914e+09
-0.43947974 -3.4863546 -0.30378416 8 5 1.6812914e+09
-1.0097619 -3.2102728 -0.64615703 1 2 1.6812914e+09
-0.39498788 -3.1383359 -0.49605221 11 3 1.6812914e+09
nan nan nan 0 0 1.6812914e+09
-0.3851926 -3.090013 -0.7097705 2 1 1.6812914e+09
-6.8796725 -21.732702 5.2463498 60 14 1.6812914e+09
-2.716356 -21.989292 5.9192343 18 15 1.6812914e+09
-6.8899341 -21.76507 3.6021597 47 12 1.6812914e+09
-2.7739463 -22.076052 4.3141303 34 13 1.6812914e+09
-1.8285308 -5.7769465 0.52707434 3 10 1.6812914e+09
-2.813422 -22.109756 2.7284267 32 11 1.6812914e+09
-0.95973808 -3.0311491 0.054887816 28 8 1.6812914e+09
-0.72013795 -5.5933218 0.29373553 8 9 1.6812914e+09
-0.93393344 -2.9462347 -0.16068137 2 6 1.6812914e+09
-0.94782221 -7.3426375 -0.12862423 1 7 1.6812914e+09
-1.0329288 -3.2520483 -0.41407099 6 4 1.6812914e+09
-0.43638897 -3.3612089 -0.29291144 9 5 1.6812914e+09
-1.0284194 -3.2301102 -0.65091866 1 2 1.6812914e+09
-0.4053137 -3.1320398 -0.49526915 36 3 1.6812914e+09
nan nan nan 0 0 1.6812914e+09
-0.39406279 -3.0692468 -0.70527828 2 1 1.6812914e+09
-6.9629269 -21.731752 5.251965 60 14 1.6812914e+09
-2.805254 -22.075508 5.9450827 38 15 1.6812914e+09
-6.9726496 -21.762053 3.6056719 55 12 1.6812914e+09
-2.8544426 -22.09301 4.3193727 35 13 1.6812914e+09
-1.8573012 -5.7939196 0.52925324 4 10 1.6812914e+09
-2.8937957 -22.124407 2.7314692 36 11 1.6812914e+09
-0.97084129 -3.0276113 0.054887816 28 8 1.6812914e+09
-0.74161118 -5.5980701 0.29412806 7 9 1.6812914e+09
-0.94854778 -2.954675 -0.16133775 2 6 1.6812914e+09
-0.45625311 -3.4213758 -0.059643596 6 7 1.6812914e+09
-1.0539737 -3.2765825 -0.41772187 6 4 1.6812914e+09
nan nan nan 0 5 1.6812914e+09
nan nan nan 0 2 1.6812914e+09
-0.41560033 -3.1257098 -0.49448615 40 3 1.6812914e+09
nan nan nan 0 0 1.6812914e+09
-0.40099367 -3.0388646 -0.69853997 4 1 1.6812914e+09
-7.0508032 -21.731575 5.2581415 62 14 1.6812914e+09
-2.8861458 -22.065081 5.9450827 36 15 1.6812914e+09
-7.0630364 -21.769232 3.611135 48 12 1.6812914e+09
-2.9370134 -22.094563 4.3217559 32 13 1.6812914e+09
-1.886745 -5.8158259 0.53186792 6 10 1.6812914e+09
-2.9765174 -22.125948 2.7329903 36 11 1.6812914e+09
-0.98294938 -3.0289581 0.054975078 28 8 1.6812914e+09
-0.76081318 -5.5929737 0.29399723 6 9 1.6812914e+09
-0.95576489 -2.9418504 -0.16081265 2 6 1.6812914e+09
-0.47087941 -3.4395783 -0.059992645 9 7 1.6812914e+09
-1.0646353 -3.270524 -0.41741762 9 4 1.6812914e+09
-0.43609014 -3.1828558 -0.27747214 11 5 1.6812914e+09
nan nan nan 0 2 1.6812914e+09
-0.42606133 -3.1168244 -0.49331155 35 3 1.6812914e+09
nan nan nan 0 0 1.6812914e+09
-0.40998161 -3.0253735 -0.6957323 4 1 1.6812914e+09
-7.1357374 -21.734604 5.2648797 57 14 1.6812914e+09
-2.9641125 -22.06205 5.9470215 35 15 1.6812914e+09
-7.1474566 -21.77025 3.6154275 42 12 1.6812914e+09
-3.0144508 -22.086609 4.3222322 36 13 1.6812914e+09
-1.9124765 -5.825767 0.53339314 6 10 1.6812914e+09
-3.0537333 -22.115421 2.7329903 22 11 1.6812914e+09
-0.99429756 -3.0278828 0.055018708 28 8 1.6812914e+09
-0.78136104 -5.597702 0.29438975 6 9 1.6812914e+09
-0.96993309 -2.9503522 -0.16146903 2 6 1.6812914e+09
-0.47565004 -3.385922 -0.059076395 9 7 1.6812914e+09
-1.0970377 -3.3304126 -0.42563212 3 4 1.6812914e+09
-0.44067752 -3.1344457 -0.27334052 21 5 1.6812914e+09
nan nan nan 0 2 1.6812914e+09
-0.43693846 -3.1153183 -0.49331155 11 3 1.6812914e+09
nan nan nan 0 0 1.6812914e+09
-0.41556141 -2.9877229 -0.68730944 2 1 1.6812914e+09
-7.2192445 -21.732683 5.2704954 60 14 1.6812914e+09
-3.0407763 -22.049177 5.9463749 32 15 1.6812914e+09
-7.2335281 -21.775631 3.6205003 55 12 1.6812914e+09
-3.0894902 -22.061367 4.3193727 40 13 1.6812914e+09
-1.942229 -5.847415 0.53600782 4 10 1.6812914e+09
-0.92260718 -6.4906025 0.79954338 1 11 1.6812914e+09
-1.0056503 -3.0267653 0.055062339 28 8 1.6812914e+09
-0.80054414 -5.5924692 0.29425889 6 9 1.6812914e+09
-0.97864723 -2.9422114 -0.16120647 2 6 1.6812914e+09
nan nan nan 0 7 1.6812914e+09
-1.1110133 -3.3336239 -0.42654485 3 4 1.6812914e+09
-0.44985723 -3.1205606 -0.27225325 28 5 1.6812914e+09
nan nan nan 0 2 1.6812914e+09
-0.44746244 -3.11133 -0.49292007 11 3 1.6812914e+09
-0.49448693 -1.4807901 -0.40866768 3 0 1.6812914e+09
-0.42156398 -2.954895 -0.68000954 4 1 1.6812914e+09
-7.3059287 -21.739679 5.2783566 56 14 1.6812914e+09
-3.1214392 -22.064734 5.9534831 35 15 1.6812914e+09
-7.316576 -21.771317 3.6240122 56 12 1.6812914e+09
-3.1675251 -22.057737 4.3208022 40 13 1.6812914e+09
-1.9769195 -5.8830891 0.53992981 7 10 1.6812914e+09
-0.93243968 -6.3989363 0.78859079 11 11 1.6812914e+09
-1.0162095 -3.0232368 0.055062339 29 8 1.6812914e+09
-0.82078147 -5.5945816 0.29452059 4 9 1.6812914e+09
-0.99449414 -2.9553375 -0.16212539 2 6 1.6812914e+09
-0.46817032 -3.1698141 -0.055324122 9 7 1.6812914e+09
-1.1202613 -3.3226728 -0.42563212 3 4 1.6812914e+09
-0.45894533 -3.1066496 -0.27116597 26 5 1.6812914e+09
-0.6319654 -1.872467 -0.37664714 4 2 1.6812914e+09
-0.45582521 -3.0926461 -0.49017942 11 3 1.6812914e+09
-0.50042832 -1.4813421 -0.40931433 4 0 1.6812914e+09
-0.43187591 -2.9534056 -0.68000954 7 1 1.6812914e+09
-7.3880429 -21.732492 5.2828488 57 14 1.6812914e+09
-3.1859801 -21.967659 5.9302197 34 15 1.6812914e+09
-7.4004779 -21.769024 3.6279147 61 12 1.6812914e+09
-3.2070358 -21.791601 4.2707601 32 13 1.6812914e+09
-1.9990478 -5.8808684 0.54036558 8 10 1.6812914e+09
-0.95367652 -6.3882794 0.78767806 50 11 1.6812914e+09
-1.0275623 -3.022037 0.055105973 29 8 1.6812914e+09
-0.84030521 -5.5916824 0.29452059 12 9 1.6812914e+09
-1.0039985 -2.9494853 -0.16199413 2 6 1.6812914e+09
-0.47701022 -3.1533284 -0.055062339 9 7 1.6812914e+09
-1.1366657 -3.3328311 -0.42745754 3 4 1.6812914e+09
-0.46904883 -3.1001027 -0.27073106 26 5 1.6812914e+09
-0.6400876 -1.8748935 -0.37759948 4 2 1.6812914e+09
-0.46661779 -3.0910361 -0.49017942 11 3 1.6812914e+09
-0.49932864 -1.4613116 -0.40414134 4 0 1.6812914e+09
-0.44075403 -2.9422407 -0.67776346 8 1 1.6812914e+09
-7.4733663 -21.734217 5.289587 59 14 1.6812914e+09
-3.196003 -21.507296 5.8087335 34 15 1.6812914e+09
-7.4860573 -21.771078 3.6325972 59 12 1.6812914e+09
-3.2250023 -21.394409 4.1949816 35 13 1.6812914e+09
-2.0292888 -5.9021139 0.54298031 2 10 1.6812914e+09
-0.97410387 -6.3726454 0.78615683 97 11 1.6812914e+09
-1.038105 -3.0184319 0.055105973 29 8 1.6812914e+09
-0.86095148 -5.596118 0.29491308 4 9 1.6812914e+09
-1.015102 -2.9483225 -0.16212539 4 6 1.6812914e+09
-0.48157221 -3.109642 -0.054320611 11 7 1.6812914e+09
-1.1466718 -3.3241525 -0.4268491 3 4 1.6812914e+09
-0.47835702 -3.0885997 -0.26986125 22 5 1.6812914e+09
-0.64823449 -1.8772861 -0.37855181 4 2 1.6812914e+09
-0.47591069 -3.0796251 -0.48861337 11 3 1.6812914e+09
-0.50284374 -1.4549966 -0.40284809 6 0 1.6812914e+09
-0.45211831 -2.9479098 -0.67944801 7 1 1.6812914e+09
-7.5571914 -21.731007 5.2952023 57 14 1.6812914e+09
-3.2511041 -21.364687 5.7731919 14 15 1.6812914e+09
-7.5709314 -21.77047 3.6368897 59 12 1.6812914e+09
-3.3022795 -21.4 4.1983175 36 13 1.6812914e+09
nan nan nan 0 10 1.6812914e+09
-0.99713767 -6.38164 0.78767806 3 11 1.6812914e+09
-1.0502797 -3.0195105 0.055193231 29 8 1.6812914e+09
-0.88086659 -5.5955453 0.29504395 4 9 1.6812914e+09
-1.0253874 -2.9447613 -0.16212539 2 6 1.6812914e+09
-0.48932335 -3.0881867 -0.053971563 19 7 1.6812914e+09
-1.1599053 -3.3248146 -0.42745754 3 4 1.6812914e+09
-0.48720449 -3.0746088 -0.26877397 19 5 1.6812914e+09
nan nan nan 0 2 1.6812914e+09
-0.48497573 -3.0707116 -0.48743883 12 3 1.6812914e+09
-0.51031762 -1.4600687 -0.40478793 6 0 1.6812914e+09
-0.4609099 -2.9366846 -0.67720193 7 1 1.6812914e+09
-7.6381001 -21.731108 5.3013792 57 14 1.6812914e+09
-3.3148904 -21.308449 5.7609143 18 15 1.6812914e+09
-7.6545486 -21.777859 3.6423528 57 12 1.6812914e+09
-3.3751354 -21.401052 4.2007008 35 13 1.6812914e+09
nan nan nan 0 10 1.6812914e+09
-3.4184027 -21.45664 2.6596684 12 11 1.6812914e+09
-1.0619477 -3.0207267 0.055280495 28 8 1.6812914e+09
-0.90099502 -5.6024547 0.2955673 4 9 1.6812914e+09
-1.0368071 -2.946054 -0.16238795 3 6 1.6812914e+09
-0.49970391 -3.0839915 -0.053927932 15 7 1.6812914e+09
-1.1734033 -3.3279693 -0.4283703 3 4 1.6812914e+09
-0.49700326 -3.0705173 -0.26855651 14 5 1.6812914e+09
-1.0589522 -2.9972427 -0.60996842 6 2 1.6812914e+09
-0.4949114 -3.0641239 -0.48665577 18 3 1.6812914e+09
-0.51379645 -1.4537266 -0.40349469 8 0 1.6812914e+09
-0.4710277 -2.9375463 -0.67776346 6 1 1.6812914e+09
-7.7237015 -21.731857 5.3081174 57 14 1.6812914e+09
-3.3441441 -21.012918 5.6840162 15 15 1.6812914e+09
-7.7387924 -21.774273 3.646255 56 12 1.6812914e+09
-3.455282 -21.423061 4.2073731 32 13 1.6812914e+09
nan nan nan 0 10 1.6812914e+09
-3.5020454 -21.498461 2.6663616 34 11 1.6812914e+09
-1.073324 -3.0193558 0.055324122 27 8 1.6812914e+09
-0.9205457 -5.5992751 0.2955673 4 9 1.6812914e+09
-1.048761 -2.9471197 -0.1626505 3 6 1.6812914e+09
-0.51087081 -3.0846956 -0.053971563 20 7 1.6812914e+09
-1.1866819 -3.328527 -0.42897877 3 4 1.6812914e+09
-0.50623727 -3.0563869 -0.26746926 12 5 1.6812914e+09
-1.0710618 -2.9981499 -0.61092073 4 2 1.6812914e+09
-0.50520557 -3.0599406 -0.48626429 27 3 1.6812914e+09
-0.51805252 -1.4496511 -0.40284809 9 0 1.6812914e+09
-0.48687091 -2.9670596 -0.6850633 4 1 1.6812914e+09
-7.811049 -21.73686 5.315979 55 14 1.6812914e+09
-3.5793922 -21.997534 5.9541297 27 15 1.6812914e+09
-7.821434 -21.765717 3.6493769 60 12 1.6812914e+09
-3.6396871 -22.076794 4.3384366 25 13 1.6812914e+09
nan nan nan 0 10 1.6812914e+09
-3.6751521 -22.076027 2.7396834 33 11 1.6812914e+09
-1.0835361 -3.0130503 0.055280495 25 8 1.6812914e+09
-0.94106185 -5.5958638 0.2955673 4 9 1.6812914e+09
-1.0553212 -2.931514 -0.16199413 4 6 1.6812914e+09
-0.52328897 -3.0927541 -0.054146089 23 7 1.6812914e+09
-1.1955016 -3.3148198 -0.42776179 3 4 1.6812914e+09
-0.51649106 -3.052145 -0.26725179 12 5 1.6812914e+09
-1.0856957 -3.0059316 -0.61330158 4 2 1.6812914e+09
-0.51466238 -3.0508528 -0.48508969 33 3 1.6812914e+09
-0.52475601 -1.4523747 -0.40414134 11 0 1.6812914e+09
-0.4976241 -2.9677453 -0.68562484 4 1 1.6812914e+09
-7.8989902 -21.73098 5.3215942 60 14 1.6812914e+09
-3.6687078 -22.036678 5.9683461 32 15 1.6812914e+09
-7.9129696 -21.769394 3.65484 56 12 1.6812914e+09
-3.6936777 -21.903582 4.3069811 21 13 1.6812914e+09
nan nan nan 0 10 1.6812914e+09
-3.7222707 -21.886923 2.7177782 57 11 1.6812914e+09
-1.0966132 -3.0162957 0.055411387 23 8 1.6812914e+09
-0.96016878 -5.5900846 0.29543647 4 9 1.6812914e+09
-1.0689681 -2.9371943 -0.16251923 3 6 1.6812914e+09
-0.53323746 -3.0859809 -0.054058824 18 7 1.6812914e+09
-1.2053628 -3.3059649 -0.42715335 4 4 1.6812914e+09
-0.52503949 -3.0380497 -0.26616451 12 5 1.6812914e+09
-1.0995537 -3.0113432 -0.61520624 4 2 1.6812914e+09
-0.52406186 -3.0417359 -0.48391515 39 3 1.6812914e+09
-0.52649814 -1.4414644 -0.40155482 12 0 1.6812914e+09
-0.5067578 -2.9587848 -0.68394023 11 1 1.6812914e+09
-7.9836087 -21.738968 5.3300171 54 14 1.6812914e+09
-3.7130797 -21.855339 5.9224658 12 15 1.6812914e+09
-7.994482 -21.768532 3.6591325 57 12 1.6812914e+09
-3.7608893 -21.859768 4.3007855 29 13 1.6812914e+09
-1.1931874 -3.249722 0.29981574 1 10 1.6812914e+09
-3.7948315 -21.851795 2.71504 25 11 1.6812914e+09
-1.1083356 -3.0173345 0.055498648 22 8 1.6812914e+09
-0.98084486 -5.5991669 0.29609066 4 9 1.6812914e+09
-1.0787023 -2.9336333 -0.16251923 3 6 1.6812914e+09
-0.54314512 -3.0791767 -0.053971563 16 7 1.6812914e+09
-1.2094482 -3.2833252 -0.42471942 4 4 1.6812914e+09
-0.53296798 -3.024025 -0.26507723 12 5 1.6812914e+09
-1.1075054 -3.0005808 -0.6137777 3 2 1.6812914e+09
-0.53085953 -3.0179956 -0.4803915 36 3 1.6812914e+09
-0.53236556 -1.4418823 -0.40220144 14 0 1.6812914e+09
-0.52446097 -3.002696 -0.69460928 25 1 1.6812914e+09
-8.0679226 -21.733805 5.3356323 56 14 1.6812914e+09
-3.7180169 -21.430576 5.8106723 12 15 1.6812914e+09
-8.0807343 -21.768272 3.6638153 59 12 1.6812914e+09
-3.8193617 -21.744984 4.2807689 18 13 1.6812914e+09
-1.2499242 -3.3694811 0.31136391 4 10 1.6812914e+09
-3.8602703 -21.77733 2.7074342 40 11 1.6812914e+09
-1.1197326 -3.01579 0.055542279 21 8 1.6812914e+09
-1.0008209 -5.5981669 0.29622149 4 9 1.6812914e+09
-1.0898069 -2.9321895 -0.1626505 3 6 1.6812914e+09
-0.55257243 -3.0698795 -0.053840671 15 7 1.6812914e+09
-1.2183009 -3.2721083 -0.42380667 9 4 1.6812914e+09
-0.54404795 -3.0220513 -0.26507723 12 5 1.6812914e+09
-1.122268 -3.0081913 -0.61615855 3 2 1.6812914e+09
-0.54139102 -3.0161242 -0.4803915 27 3 1.6812914e+09
-0.53485477 -1.4332305 -0.40026158 16 0 1.6812914e+09
-0.53122008 -2.9767649 -0.68899399 29 1 1.6812914e+09
-8.1557217 -21.73744 5.3434935 55 14 1.6812914e+09
-3.8159347 -21.548265 5.8462133 33 15 1.6812914e+09
-8.1670809 -21.767677 3.6684978 56 12 1.6812914e+09
-3.8956745 -21.733936 4.2812452 75 13 1.6812914e+09
-1.2394935 -3.304261 0.30569878 8 10 1.6812914e+09
-3.9393516 -21.780815 2.7095637 88 11 1.6812914e+09
-1.1325383 -3.016345 0.055629544 22 8 1.6812914e+09
-1.0208863 -5.5920048 0.29609066 4 9 1.6812914e+09
-1.1005467 -2.9281757 -0.1626505 2 6 1.6812914e+09
-0.56283724 -3.0654731 -0.05379704 16 7 1.6812914e+09
-1.2390405 -3.2908394 -0.4268491 9 4 1.6812914e+09
-0.55370134 -3.0152335 -0.26464233 11 5 1.6812914e+09
-1.1336288 -3.0065515 -0.61663473 4 2 1.6812914e+09
-0.54794639 -2.9923511 -0.47686785 36 3 1.6812914e+09
-0.53985441 -1.4313549 -0.40026158 16 0 1.6812914e+09
-0.54463625 -2.9916742 -0.69292474 35 1 1.6812914e+09
-8.2457104 -21.734735 5.3502321 56 14 1.6812914e+09
-3.9227934 -21.68861 5.8882165 54 15 1.6812914e+09
-8.2599497 -21.772226 3.6743512 54 12 1.6812914e+09
-3.9761903 -21.724339 4.2821984 69 13 1.6812914e+09
-1.248368 -3.2929292 0.3050451 16 10 1.6812914e+09
-4.0187058 -21.76379 2.7092595 81 11 1.6812914e+09
-1.1403964 -3.0053637 0.055498648 21 8 1.6812914e+09
-1.0426747 -5.6006808 0.29674488 6 9 1.6812914e+09
-1.1143122 -2.9336495 -0.1631756 7 6 1.6812914e+09
-0.5717088 -3.0536592 -0.053622518 19 7 1.6812914e+09
-1.2549382 -3.2980883 -0.4283703 3 4 1.6812914e+09
-0.56285888 -3.0059359 -0.26398996 11 5 1.6812914e+09
-1.1481429 -3.0115473 -0.61853939 4 2 1.6812914e+09
-0.55801028 -2.985467 -0.47608483 29 3 1.6812914e+09
-0.54571009 -1.4317172 -0.4009082 16 0 1.6812914e+09
-0.55595785 -2.9945464 -0.69404775 36 1 1.6812914e+09
-8.3328686 -21.73539 5.357532 56 14 1.6812914e+09
-4.0002275 -21.684286 5.8908014 49 15 1.6812914e+09
-8.3447409 -21.766315 3.6782534 55 12 1.6812914e+09
-4.0546966 -21.724802 4.285058 77 13 1.6812914e+09
-1.2589628 -3.2862263 0.30482721 73 10 1.6812914e+09
-4.0960269 -21.756945 2.7101722 71 11 1.6812914e+09
-1.1544647 -3.0106983 0.055673171 21 8 1.6812914e+09
-1.0617547 -5.5945539 0.29661402 6 9 1.6812914e+09
-1.1254417 -2.9320724 -0.16330688 2 6 1.6812914e+09
-0.58282954 -3.0541012 -0.053666148 23 7 1.6812914e+09
-1.2717931 -3.3075814 -0.43019572 2 4 1.6812914e+09
-0.57149506 -2.9941649 -0.26312014 11 5 1.6812914e+09
-1.1577646 -3.0052316 -0.61806321 6 2 1.6812914e+09
-0.56246841 -2.9519603 -0.4709951 25 3 1.6812914e+09
-0.54809278 -1.4230459 -0.39896834 18 0 1.6812914e+09
-0.56640738 -2.9925876 -0.69404775 40 1 1.6812914e+09
-8.4210091 -21.737972 5.3653932 55 14 1.6812914e+09
-4.0758953 -21.670191 5.8908014 48 15 1.6812914e+09
-8.4331589 -21.769293 3.6837168 56 12 1.6812914e+09
-4.1318803 -21.717751 4.2864876 76 13 1.6812914e+09
-1.2704262 -3.2818112 0.30482721 79 10 1.6812914e+09
-4.1714201 -21.760305 2.712302 74 11 1.6812914e+09
-1.1649669 -3.0066502 0.055673171 21 8 1.6812914e+09
-1.081749 -5.5932651 0.29674488 6 9 1.6812914e+09
-1.1392858 -2.9374347 -0.16383198 2 6 1.6812914e+09
-0.59159255 -3.0422304 -0.053491622 27 7 1.6812914e+09
-1.2860302 -3.3100598 -0.43110847 2 4 1.6812914e+09
-0.58099961 -2.9872611 -0.26268524 11 5 1.6812914e+09
-1.1703974 -3.0082362 -0.6194917 6 2 1.6812914e+09
-0.57458675 -2.9622021 -0.47295269 35 3 1.6812914e+09
-0.55569196 -1.4278725 -0.4009082 12 0 1.6812914e+09
-0.57685 -2.9905922 -0.69404775 41 1 1.6812914e+09
-8.505477 -21.741688 5.3732548 54 14 1.6812914e+09
-4.1486416 -21.661301 5.8920941 45 15 1.6812914e+09
-8.5187998 -21.775703 3.68957 53 12 1.6812914e+09
-4.2066731 -21.718386 4.2893476 70 13 1.6812914e+09
-1.2855073 -3.2866328 0.30569878 15 10 1.6812914e+09
-4.2497277 -21.757788 2.7138231 75 11 1.6812914e+09
-1.1767552 -3.0074253 0.055760436 20 8 1.6812914e+09
-1.1022117 -5.5994468 0.29726821 6 9 1.6812914e+09
-1.1481088 -2.9313164 -0.1637007 2 6 1.6812914e+09
-0.60076213 -3.0327888 -0.05336073 28 7 1.6812914e+09
-1.2979071 -3.3080862 -0.43141267 3 4 1.6812914e+09
-0.58802307 -2.9706545 -0.26138052 11 5 1.6812914e+09
-1.1826891 -3.0086997 -0.62044406 4 2 1.6812914e+09
-0.58587319 -2.9650245 -0.47373572 39 3 1.6812914e+09
-0.55358279 -1.4079527 -0.39573517 11 0 1.6812914e+09
-0.58629829 -2.9862716 -0.69348621 43 1 1.6812914e+09
-8.5920649 -21.739052 5.379993 57 14 1.6812914e+09
-4.2233043 -21.641945 5.8908014 42 15 1.6812914e+09
-8.6056528 -21.77339 3.6942527 54 12 1.6812914e+09
-4.2876792 -21.730055 4.29459 60 13 1.6812914e+09
-1.2936511 -3.275404 0.3050451 7 10 1.6812914e+09
-4.3295202 -21.762291 2.7162571 57 11 1.6812914e+09
-1.188166 -3.0056236 0.055804066 19 8 1.6812914e+09
-1.1207732 -5.5906687 0.29700652 6 9 1.6812914e+09
-1.1574142 -2.9249699 -0.16356944 2 6 1.6812914e+09
-0.6123262 -3.0355754 -0.053447992 28 7 1.6812914e+09
-1.3121932 -3.3104548 -0.43232542 2 4 1.6812914e+09
-0.59890711 -2.9684794 -0.26138052 19 5 1.6812914e+09
-1.1922772 -3.0022724 -0.61996788 3 2 1.6812914e+09
-0.59670287 -2.9653828 -0.47412723 40 3 1.6812914e+09
-0.56207049 -1.4149851 -0.39832169 9 0 1.6812914e+09
-0.59771407 -2.9864922 -0.69404775 40 1 1.6812914e+09
-8.6832561 -21.747389 5.3895388 53 14 1.6812914e+09
-4.2988229 -21.627071 5.8908014 40 15 1.6812914e+09
-8.6953411 -21.777617 3.7001061 52 12 1.6812914e+09
-4.3664031 -21.729395 4.2974496 62 13 1.6812914e+09
-1.3158166 -3.2960782 0.30744189 3 10 1.6812914e+09
-4.4069352 -21.754343 2.7171698 57 11 1.6812914e+09
-1.2001029 -3.0035689 0.055847697 18 8 1.6812914e+09
-1.1422521 -5.5914164 0.29726821 6 9 1.6812914e+09
-1.1718403 -2.9299784 -0.16409454 2 6 1.6812914e+09
-0.62241936 -3.0309701 -0.053404361 26 7 1.6812914e+09
-1.3233938 -3.3033202 -0.43202117 3 4 1.6812914e+09
-0.60876805 -2.9639304 -0.26116306 29 5 1.6812914e+09
-1.2109848 -3.0185881 -0.62425339 2 2 1.6812914e+09
-0.60705036 -2.9632816 -0.47412723 41 3 1.6812914e+09
-0.57061392 -1.4219751 -0.4009082 8 0 1.6812914e+09
-0.60475594 -2.9676733 -0.69011706 30 1 1.6812914e+09
-8.7720232 -21.738007 5.395154 52 14 1.6812914e+09
-4.3751874 -21.596968 5.8869243 38 15 1.6812914e+09
-8.7843437 -21.768499 3.7040083 54 12 1.6812914e+09
-4.4494586 -21.730074 4.3007855 62 13 1.6812914e+09
nan nan nan 0 10 1.6812914e+09
-4.4883523 -21.765562 2.7205164 60 11 1.6812914e+09
-1.2124535 -3.0039966 0.055934958 18 8 1.6812914e+09
-1.1617627 -5.5873952 0.29726821 7 9 1.6812914e+09
-1.1745691 -2.9073558 -0.16304433 2 6 1.6812914e+09
-0.63045686 -3.0165412 -0.053186204 27 7 1.6812914e+09
-1.3377124 -3.3055797 -0.4329339 4 4 1.6812914e+09
-0.61911035 -2.9617872 -0.26116306 30 5 1.6812914e+09
-1.225206 -3.0234387 -0.62615806 2 2 1.6812914e+09
-0.61789072 -2.9635627 -0.47451875 41 3 1.6812914e+09
-0.5810324 -1.4333968 -0.40478793 6 0 1.6812914e+09
-0.61412913 -2.9607718 -0.68899399 23 1 1.6812914e+09
-8.8596897 -21.74715 5.4047003 54 14 1.6812914e+09
-4.4355836 -21.527935 5.8720613 32 15 1.6812914e+09
-8.8676653 -21.766691 3.7086911 53 12 1.6812914e+09
-4.5234923 -21.72481 4.3026919 59 13 1.6812914e+09
nan nan nan 0 10 1.6812914e+09
-4.5673556 -21.76433 2.7223418 57 11 1.6812914e+09
-1.2224085 -2.9999592 0.055934958 19 8 1.6812914e+09
-1.1813136 -5.588398 0.29752991 7 9 1.6812914e+09
-1.193645 -2.9265561 -0.16435708 2 6 1.6812914e+09
-0.64046651 -3.0118766 -0.053142574 28 7 1.6812914e+09
-1.3477271 -3.2988288 -0.43262964 8 4 1.6812914e+09
-0.62944251 -2.9621551 -0.26138052 38 5 1.6812914e+09
-1.2413377 -3.0327685 -0.62901503 2 2 1.6812914e+09
-0.6282317 -2.9613879 -0.47451875 40 3 1.6812914e+09
nan nan nan 0 0 1.6812914e+09
-0.62344497 -2.9563344 -0.68843246 14 1 1.6812914e+09
-8.9485283 -21.747633 5.4125619 53 14 1.6812914e+09
-4.5211 -21.561956 5.8856316 36 15 1.6812914e+09
-8.9576874 -21.769855 3.7145443 54 12 1.6812914e+09
-4.6038718 -21.730495 4.3069811 57 13 1.6812914e+09
nan nan nan 0 10 1.6812914e+09
-4.6479583 -21.7701 2.72508 59 11 1.6812914e+09
-1.2357304 -3.0026069 0.05606585 16 8 1.6812914e+09
-1.2018594 -5.5891228 0.2977916 8 9 1.6812914e+09
-1.1962359 -2.903909 -0.16330688 2 6 1.6812914e+09
-0.65097594 -3.0096223 -0.053142574 28 7 1.6812914e+09
-1.3630242 -3.3032777 -0.43384659 3 4 1.6812914e+09
-0.64029515 -2.9598279 -0.26138052 41 5 1.6812914e+09
-1.2547328 -3.0352201 -0.63044351 2 2 1.6812914e+09
-0.64011651 -2.9664202 -0.47569332 32 3 1.6812914e+09
nan nan nan 0 0 1.6812914e+09
-0.63173759 -2.9421165 -0.68562484 11 1 1.6812914e+09
-9.0374765 -21.747757 5.420423 54 14 1.6812914e+09
-4.5943246 -21.536598 5.8830471 35 15 1.6812914e+09
-9.0468922 -21.770378 3.7200074 49 12 1.6812914e+09
-4.6817636 -21.72389 4.3088875 61 13 1.6812914e+09
nan nan nan 0 10 1.6812914e+09
-4.7260261 -21.763443 2.7262971 54 11 1.6812914e+09
-1.2467272 -2.9980576 0.05606585 13 8 1.6812914e+09
-1.2239319 -5.5919981 0.2981841 6 9 1.6812914e+09
-1.2116742 -2.911027 -0.16396326 2 6 1.6812914e+09
-0.66041088 -3.0024478 -0.053055312 27 7 1.6812914e+09
-1.3722544 -3.2913902 -0.4329339 2 4 1.6812914e+09
-0.65115446 -2.9600084 -0.26159796 35 5 1.6812914e+09
-1.2710003 -3.0444074 -0.63330048 2 2 1.6812914e+09
-0.64941627 -2.9593427 -0.47491029 27 3 1.6812914e+09
nan nan nan 0 0 1.6812914e+09
-0.6378752 -2.9208467 -0.68113261 2 1 1.6812914e+09
-9.1293869 -21.743685 5.4277229 52 14 1.6812914e+09
-4.6655493 -21.484211 5.873354 34 15 1.6812914e+09
-9.1400099 -21.76895 3.7254708 52 12 1.6812914e+09
-4.7666068 -21.730556 4.3136535 61 13 1.6812914e+09
nan nan nan 0 10 1.6812914e+09
-4.8116455 -21.772629 2.7296438 56 11 1.6812914e+09
-1.2562159 -2.9913836 0.056022223 12 8 1.6812914e+09
-1.2434442 -5.5876913 0.2981841 7 9 1.6812914e+09
-1.2334522 -2.9343913 -0.16553856 2 6 1.6812914e+09
