# .PCD v0.7 - Point Cloud Data file format
VERSION 0.7
FIELDS x y z intensity ring timestamp
SIZE 4 4 4 4 2 8
TYPE F F F F U F
COUNT 1 1 1 1 1 1
WIDTH 965
HEIGHT 1
VIEWPOINT 0 0 0 1 0 0 0
POINTS 965
DATA ascii
6.0998278 11.882959 2.1052597 35 12 1.6812926e+09
3.3200357 11.008255 2.2261713 2 13 1.6812926e+09
6.105062 11.888033 1.1661439 33 10 1.6812926e+09
3.3217015 10.951572 1.3988967 2 11 1.6812926e+09
6.105278 11.878238 0.23250966 34 8 1.6812926e+09
3.3333542 10.955632 0.5983308 7 9 1.6812926e+09
6.092803 11.843808 -0.69851762 31 6 1.6812926e+09
3.4438002 11.304985 -0.2056766 9 7 1.6812926e+09
6.1644087 11.967567 -1.646244 14 4 1.6812926e+09
2.4187429 7.9353113 -0.72129714 6 5 1.6812926e+09
3.437535 6.6638813 -1.4480202 22 2 1.6812926e+09
2.9610093 9.7299776 -1.6071779 14 3 1.6812926e+09
2.7608106 5.3459086 -1.6016928 18 0 1.6812926e+09
1.7863027 5.8892603 -1.4105566 18 1 1.6812926e+09
6.13274 11.845153 3.0665007 32 14 1.6812926e+09
3.3168166 10.941994 3.050086 3 15 1.6812926e+09
6.1265068 11.83309 2.1001868 33 12 1.6812926e+09
3.3698955 11.034158 2.2337968 3 13 1.6812926e+09
6.1304812 11.835691 1.1630933 35 10 1.6812926e+09
3.3875573 11.030062 1.4104578 6 11 1.6812926e+09
6.1190867 11.803598 0.23146252 43 8 1.6812926e+09
3.378917 10.967793 0.59963918 8 9 1.6812926e+09
6.1260586 11.806957 -0.6975987 34 6 1.6812926e+09
3.3846409 10.972788 -0.19983004 10 7 1.6812926e+09
6.2244539 11.981205 -1.651112 15 4 1.6812926e+09
2.439096 7.9030185 -0.71912259 26 5 1.6812926e+09
3.4449098 6.6213636 -1.4413539 22 2 1.6812926e+09
2.9615576 9.611022 -1.5891681 16 3 1.6812926e+09
2.7850354 5.3469472 -1.604926 16 0 1.6812926e+09
1.8011415 5.8643546 -1.4060644 19 1 1.6812926e+09
6.1785617 11.832309 3.0687466 24 14 1.6812926e+09
3.375514 10.99731 3.0688257 3 15 1.6812926e+09
6.1826372 11.840086 2.1052597 24 12 1.6812926e+09
3.4018748 11.001223 2.2295074 8 13 1.6812926e+09
6.1879063 11.845122 1.1661439 23 10 1.6812926e+09
3.4248507 11.021136 1.4107621 11 11 1.6812926e+09
6.1857371 11.830896 0.23242241 25 8 1.6812926e+09
3.4260902 10.984535 0.60120928 27 9 1.6812926e+09
6.178813 11.807619 -0.69891143 24 6 1.6812926e+09
3.436317 11.003859 -0.20061541 33 7 1.6812926e+09
6.2766056 11.979186 -1.6538501 16 4 1.6812926e+09
3.3919969 10.861697 -0.99050605 39 5 1.6812926e+09
3.5295732 6.7294278 -1.467543 22 2 1.6812926e+09
2.9970818 9.612936 -1.5911256 21 3 1.6812926e+09
2.8160434 5.3607063 -1.612039 17 0 1.6812926e+09
1.8324248 5.8929334 -1.4144872 19 1 1.6812926e+09
6.2983532 11.964799 3.1086152 30 14 1.6812926e+09
3.4191177 11.009123 3.0752881 9 15 1.6812926e+09
6.3070054 11.981205 2.1341362 32 12 1.6812926e+09
3.4456558 11.013306 2.2342732 18 13 1.6812926e+09
6.3128181 11.982084 1.1818318 34 10 1.6812926e+09
3.4514017 10.971237 1.4058943 48 11 1.6812926e+09
6.3147016 11.980574 0.23578198 33 8 1.6812926e+09
3.4564946 10.954063 0.60016257 43 9 1.6812926e+09
6.3414383 12.021112 -0.71282661 27 6 1.6812926e+09
3.4566474 10.934588 -0.19956826 42 7 1.6812926e+09
6.3475938 12.017544 -1.6620646 18 4 1.6812926e+09
3.4414847 10.893142 -0.99442023 39 5 1.6812926e+09
3.5243411 6.6628375 -1.4556389 22 2 1.6812926e+09
3.0484288 9.6589355 -1.6005219 17 3 1.6812926e+09
2.8370008 5.3551106 -1.6133322 16 0 1.6812926e+09
1.85852 5.9077435 -1.419541 18 1 1.6812926e+09
6.3857822 12.028803 3.1310761 39 14 1.6812926e+09
3.4488447 10.96947 3.0675333 32 15 1.6812926e+09
6.3881669 12.033269 2.147404 39 12 1.6812926e+09
3.4707582 10.959094 2.2256947 50 13 1.6812926e+09
6.3934135 12.038062 1.189458 35 10 1.6812926e+09
3.4904294 10.961487 1.4061984 46 11 1.6812926e+09
6.3952084 12.03129 0.23722182 35 8 1.6812926e+09
3.4977448 10.951446 0.60068589 50 9 1.6812926e+09
6.4197187 12.067225 -0.71689618 27 6 1.6812926e+09
3.4898477 10.913543 -0.19939373 47 7 1.6812926e+09
6.4128418 12.039111 -1.6681494 21 4 1.6812926e+09
3.4900947 10.914276 -0.9974646 40 5 1.6812926e+09
3.5371771 6.6310081 -1.4513534 21 2 1.6812926e+09
3.094131 9.685874 -1.6067864 16 3 1.6812926e+09
2.8513288 5.3392844 -1.6113924 18 0 1.6812926e+09
1.8850302 5.919795 -1.4240332 19 1 1.6812926e+09
6.4495826 12.047242 3.1417451 35 14 1.6812926e+09
3.48492 10.95046 3.0655947 41 15 1.6812926e+09
6.4592757 12.065316 2.1571596 38 12 1.6812926e+09
3.5007613 10.921201 2.2204521 44 13 1.6812926e+09
6.4659739 12.072749 1.1951231 37 10 1.6812926e+09
3.5172679 10.913805 1.4016349 60 11 1.6812926e+09
6.4631534 12.057358 0.23818171 34 8 1.6812926e+09
3.5298159 10.920163 0.59963918 74 9 1.6812926e+09
6.496037 12.108537 -0.72070318 27 6 1.6812926e+09
3.5256152 10.894158 -0.19926283 49 7 1.6812926e+09
6.4689212 12.042883 -1.6718001 21 4 1.6812926e+09
3.5350642 10.923356 -0.99942166 39 5 1.6812926e+09
3.5696073 6.63591 -1.4551628 23 2 1.6812926e+09
3.1028919 9.5974731 -1.5938662 15 3 1.6812926e+09
2.8779685 5.3441796 -1.6159186 18 0 1.6812926e+09
1.9138833 5.9386911 -1.43021 21 1 1.6812926e+09
6.5458012 12.119973 3.1670139 44 14 1.6812926e+09
3.5161541 10.910028 3.0578403 52 15 1.6812926e+09
6.5433602 12.115429 2.1704271 57 12 1.6812926e+09
3.5422797 10.912967 2.2214055 60 13 1.6812926e+09
6.5513721 12.120127 1.2023135 58 10 1.6812926e+09
3.5564761 10.898479 1.4013306 57 11 1.6812926e+09
6.5534191 12.113793 0.23979606 60 8 1.6812926e+09
3.5740485 10.913648 0.60003173 50 9 1.6812926e+09
6.5674505 12.129605 -0.72345996 27 6 1.6812926e+09
3.580214 10.913172 -0.19987367 43 7 1.6812926e+09
6.5269437 12.039769 -1.6748426 19 4 1.6812926e+09
3.5920668 10.949312 -1.0031184 39 5 1.6812926e+09
3.6102893 6.6501899 -1.4613528 22 2 1.6812926e+09
3.1220679 9.5315104 -1.5848613 18 3 1.6812926e+09
2.8959358 5.32622 -1.6139787 18 0 1.6812926e+09
1.9422359 5.9448576 -1.4335792 21 1 1.6812926e+09
6.6086164 12.124694 3.1748753 40 14 1.6812926e+09
3.5617623 10.907926 3.0610714 68 15 1.6812926e+09
6.6084962 12.119414 2.1758902 38 12 1.6812926e+09
3.5875907 10.903321 2.2223585 42 13 1.6812926e+09
6.6181417 12.132048 1.2060176 39 10 1.6812926e+09
3.6072021 10.905321 1.4040687 42 11 1.6812926e+09
6.6154594 12.117061 0.24036326 37 8 1.6812926e+09
3.6280417 10.930018 0.60173261 44 9 1.6812926e+09
6.6424394 12.151334 -0.72634798 27 6 1.6812926e+09
3.6299646 10.923069 -0.20030999 46 7 1.6812926e+09
6.5859466 12.033062 -1.6775808 19 4 1.6812926e+09
3.6442809 10.966168 -1.0059453 38 5 1.6812926e+09
3.6664579 6.6894417 -1.4732569 21 2 1.6812926e+09
3.194489 9.6220245 -1.6020881 17 3 1.6812926e+09
2.9138052 5.3082027 -1.612039 18 0 1.6812926e+09
1.9668487 5.9393258 -1.4341407 21 1 1.6812926e+09
6.6772056 12.134349 3.1844213 39 14 1.6812926e+09
3.6085527 10.902712 3.0636563 49 15 1.6812926e+09
6.6907053 12.158849 2.187597 39 12 1.6812926e+09
3.6379554 10.915079 2.2276011 41 13 1.6812926e+09
6.6959105 12.163267 1.2116828 35 10 1.6812926e+09
3.6600716 10.924335 1.4083281 42 11 1.6812926e+09
6.6957188 12.152865 0.24158493 35 8 1.6812926e+09
3.675226 10.937949 0.60291016 43 9 1.6812926e+09
6.7182822 12.183744 -0.72976118 29 6 1.6812926e+09
3.6787317 10.935756 -0.20078993 42 7 1.6812926e+09
6.6468 12.039252 -1.6818402 18 4 1.6812926e+09
3.6915874 10.973985 -1.0079024 38 5 1.6812926e+09
3.6968911 6.6866965 -1.4756379 21 2 1.6812926e+09
3.2454445 9.6570692 -1.6099184 16 3 1.6812926e+09
2.9311464 5.2958865 -1.6113924 15 0 1.6812926e+09
1.9929742 5.9485979 -1.4380714 21 1 1.6812926e+09
6.7561688 12.176999 3.2018287 37 14 1.6812926e+09
3.6596084 10.928986 3.0746417 54 15 1.6812926e+09
6.759469 12.182921 2.196182 37 12 1.6812926e+09
3.6854324 10.930224 2.2333202 42 13 1.6812926e+09
6.7637153 12.185546 1.2162584 35 10 1.6812926e+09
3.7117074 10.951449 1.4135003 43 11 1.6812926e+09
6.762382 12.173119 0.24245754 34 8 1.6812926e+09
3.7262244 10.96288 0.6050036 44 9 1.6812926e+09
6.7911053 12.214766 -0.73304307 27 6 1.6812926e+09
3.7313597 10.965449 -0.20157529 43 7 1.6812926e+09
6.6863699 12.011641 -1.6812316 18 4 1.6812926e+09
3.7442961 11.003476 -1.0118166 39 5 1.6812926e+09
3.7070594 6.6501732 -1.4704 21 2 1.6812926e+09
3.0108693 8.8553982 -1.4775856 15 3 1.6812926e+09
2.9496145 5.2856221 -1.6113924 17 0 1.6812926e+09
2.0160675 5.9485288 -1.439756 21 1 1.6812926e+09
6.8224254 12.19586 3.2130592 49 14 1.6812926e+09
3.7085695 10.948173 3.0836885 57 15 1.6812926e+09
6.8284831 12.20666 2.204767 56 12 1.6812926e+09
3.7362242 10.954462 2.2409458 44 13 1.6812926e+09
6.8317561 12.207498 1.220834 62 10 1.6812926e+09
3.7627726 10.975989 1.4183681 46 11 1.6812926e+09
6.8365979 12.206137 0.24359195 62 8 1.6812926e+09
3.7790627 10.992309 0.60735875 47 9 1.6812926e+09
6.8666687 12.249781 -0.73658752 27 6 1.6812926e+09
3.7866771 11.001997 -0.20249154 56 7 1.6812926e+09
6.7343311 11.999046 -1.6827528 19 4 1.6812926e+09
3.7932076 11.020958 -1.0146435 39 5 1.6812926e+09
3.706192 6.5944085 -1.4608767 22 2 1.6812926e+09
3.2462316 9.4403448 -1.5774226 22 3 1.6812926e+09
2.9668624 5.2731895 -1.6107457 18 0 1.6812926e+09
2.0218413 5.8976588 -1.4290869 21 1 1.6812926e+09
6.9020624 12.237745 3.2304666 37 14 1.6812926e+09
3.7616196 10.978576 3.0959666 55 15 1.6812926e+09
6.9013844 12.236518 2.2145226 37 12 1.6812926e+09
3.7848318 10.971518 2.2471414 44 13 1.6812926e+09
6.9098263 12.246474 1.2271528 35 10 1.6812926e+09
3.8156786 11.004994 1.4238445 56 11 1.6812926e+09
6.9123559 12.240961 0.24476999 39 8 1.6812926e+09
3.8264184 11.004993 0.60879797 50 9 1.6812926e+09
6.9351873 12.271377 -0.7393443 27 6 1.6812926e+09
3.8349075 11.017044 -0.2030151 46 7 1.6812926e+09
6.8287334 12.068325 -1.6958352 11 4 1.6812926e+09
3.8431041 11.040585 -1.0176879 39 5 1.6812926e+09
3.7134533 6.5536766 -1.4546865 21 2 1.6812926e+09
3.2613447 9.3776398 -1.5688092 23 3 1.6812926e+09
2.988827 5.2691016 -1.6126854 19 0 1.6812926e+09
2.0304708 5.8560309 -1.4206641 19 1 1.6812926e+09
6.9772577 12.270752 3.2456279 35 14 1.6812926e+09
3.8149259 11.008739 3.1082442 60 15 1.6812926e+09
6.9721351 12.261721 2.2234976 34 12 1.6812926e+09
3.8400638 11.006907 2.2571499 51 13 1.6812926e+09
6.9783969 12.267736 1.2317286 33 10 1.6812926e+09
3.8587091 11.011018 1.4262782 43 11 1.6812926e+09
6.9834924 12.266716 0.24577349 39 8 1.6812926e+09
3.8788726 11.031613 0.61102229 43 9 1.6812926e+09
7.0101204 12.303486 -0.74275744 29 6 1.6812926e+09
3.8882637 11.046037 -0.20380047 42 7 1.6812926e+09
4.9572234 8.6908865 -1.2224374 9 4 1.6812926e+09
3.8915319 11.055297 -1.0202973 37 5 1.6812926e+09
3.7570796 6.5796838 -1.4632576 21 2 1.6812926e+09
3.2891533 9.3574543 -1.567243 26 3 1.6812926e+09
3.0215948 5.2837892 -1.620445 19 0 1.6812926e+09
2.042856 5.8259125 -1.4150487 21 1 1.6812926e+09
7.0421391 12.289819 3.2568583 32 14 1.6812926e+09
3.8601828 11.021104 3.1153526 46 15 1.6812926e+09
7.043457 12.292093 2.2332532 35 12 1.6812926e+09
3.8855097 11.019574 2.2623923 42 13 1.6812926e+09
7.0571141 12.305951 1.2380474 34 10 1.6812926e+09
3.9111955 11.037249 1.4314505 43 11 1.6812926e+09
7.0614562 12.308531 0.24708243 43 8 1.6812926e+09
3.9254537 11.046924 0.61259234 43 9 1.6812926e+09
7.0856957 12.340791 -0.7464332 30 6 1.6812926e+09
3.9351704 11.055949 -0.20423676 42 7 1.6812926e+09
4.9513812 8.6141682 -1.2139186 25 4 1.6812926e+09
3.9431796 11.084574 -1.0242115 38 5 1.6812926e+09
3.825345 6.6452174 -1.4808756 22 2 1.6812926e+09
nan nan nan 0 3 1.6812926e+09
3.0472605 5.2857604 -1.6243248 22 0 1.6812926e+09
2.0694723 5.8397775 -1.4201025 19 1 1.6812926e+09
7.1130276 12.313676 3.2697735 54 14 1.6812926e+09
3.9074891 11.032608 3.1224608 41 15 1.6812926e+09
7.1246195 12.333713 2.2453501 65 12 1.6812926e+09
3.9387701 11.04756 2.2709711 44 13 1.6812926e+09
7.1240568 12.327761 1.242623 58 10 1.6812926e+09
3.9611456 11.061602 1.4363183 43 11 1.6812926e+09
7.134419 12.335733 0.24812958 43 8 1.6812926e+09
3.9791691 11.075452 0.6149475 41 9 1.6812926e+09
7.158752 12.367834 -0.74958378 30 6 1.6812926e+09
3.9870231 11.085183 -0.20502213 44 7 1.6812926e+09
5.0249767 8.6719713 -1.2245671 14 4 1.6812926e+09
3.9944782 11.105901 -1.0274733 37 5 1.6812926e+09
3.8461287 6.630373 -1.4803996 23 2 1.6812926e+09
nan nan nan 0 3 1.6812926e+09
3.0781224 5.2985926 -1.6314377 21 0 1.6812926e+09
2.0996845 5.8600464 -1.4268409 21 1 1.6812926e+09
7.1856928 12.344757 3.284373 37 14 1.6812926e+09
3.9529953 11.044604 3.1295691 42 15 1.6812926e+09
7.1953006 12.361235 2.2547157 34 12 1.6812926e+09
3.9861851 11.064458 2.2771668 42 13 1.6812926e+09
7.2084241 12.373828 1.2498134 37 10 1.6812926e+09
4.0123906 11.082709 1.440882 42 11 1.6812926e+09
7.2143111 12.378952 0.24948214 35 8 1.6812926e+09
4.0243845 11.085667 0.61625588 42 9 1.6812926e+09
7.2349515 12.404406 -0.75325948 31 6 1.6812926e+09
4.0376391 11.104091 -0.20563295 44 7 1.6812926e+09
5.086247 8.710969 -1.2324773 19 4 1.6812926e+09
4.0457306 11.132391 -1.03117 38 5 1.6812926e+09
3.8518987 6.5872507 -1.4737332 24 2 1.6812926e+09
3.3121102 9.1211386 -1.5331811 18 3 1.6812926e+09
3.102704 5.298233 -1.6346707 18 0 1.6812926e+09
2.13483 5.8965845 -1.4375098 19 1 1.6812926e+09
7.2595677 12.372124 3.2984114 31 14 1.6812926e+09
4.0030155 11.062536 3.1386161 43 15 1.6812926e+09
7.268404 12.387154 2.264081 30 12 1.6812926e+09
4.0390458 11.089683 2.285269 41 13 1.6812926e+09
7.2784209 12.399252 1.2548249 37 10 1.6812926e+09
4.068706 11.122951 1.4478794 51 11 1.6812926e+09
7.2828054 12.396794 0.25035474 34 8 1.6812926e+09
4.0845361 11.130152 0.61952686 57 9 1.6812926e+09
7.3123789 12.43718 -0.75680393 27 6 1.6812926e+09
4.0830503 11.114106 -0.20606928 51 7 1.6812926e+09
5.1128459 8.6867466 -1.2315646 9 4 1.6812926e+09
4.0948606 11.146257 -1.0337795 35 5 1.6812926e+09
3.9061267 6.6294098 -1.4861135 23 2 1.6812926e+09
3.3440375 9.1147423 -1.5339642 18 3 1.6812926e+09
3.1325347 5.3087096 -1.641137 19 0 1.6812926e+09
2.1503861 5.8753657 -1.4341407 21 1 1.6812926e+09
7.3365188 12.408792 3.3146956 33 14 1.6812926e+09
4.0537601 11.087765 3.1496012 43 15 1.6812926e+09
7.3496656 12.430999 2.2765682 39 12 1.6812926e+09
4.0952702 11.129209 2.2962306 57 13 1.6812926e+09
7.3508339 12.423064 1.2598363 50 10 1.6812926e+09
4.1100864 11.115664 1.4487921 49 11 1.6812926e+09
7.3595343 12.4328 0.25157642 60 8 1.6812926e+09
4.1292248 11.137617 0.62070441 42 9 1.6812926e+09
7.386673 12.468705 -0.76021713 27 6 1.6812926e+09
4.1348596 11.134941 -0.20672373 42 7 1.6812926e+09
7.045877 11.879423 -1.689142 1 4 1.6812926e+09
4.143054 11.162976 -1.0366064 35 5 1.6812926e+09
3.9229755 6.605186 -1.4837327 23 2 1.6812926e+09
3.3809783 9.1169062 -1.5363132 19 3 1.6812926e+09
3.1646328 5.3205705 -1.64825 19 0 1.6812926e+09
2.1707008 5.8704886 -1.4347023 22 1 1.6812926e+09
7.4222002 12.454254 3.3337877 41 14 1.6812926e+09
4.1091647 11.118861 3.1625254 55 15 1.6812926e+09
7.4195666 12.449811 2.2847629 39 12 1.6812926e+09
4.1400762 11.13095 2.2995667 43 13 1.6812926e+09
7.4315338 12.464929 1.2665908 38 10 1.6812926e+09
4.1634054 11.146146 1.4545727 43 11 1.6812926e+09
7.4310699 12.454256 0.2525363 38 8 1.6812926e+09
4.1829553 11.162885 0.62292874 41 9 1.6812926e+09
7.4685574 12.507144 -0.76415539 29 6 1.6812926e+09
4.1866713 11.16096 -0.20746547 43 7 1.6812926e+09
6.9140954 11.565123 -1.6477653 15 4 1.6812926e+09
4.1985979 11.192759 -1.0407381 35 5 1.6812926e+09
3.9272075 6.5626607 -1.4770663 19 2 1.6812926e+09
nan nan nan 0 3 1.6812926e+09
3.1946788 5.3307571 -1.6547163 22 0 1.6812926e+09
2.1911795 5.8628755 -1.4347023 17 1 1.6812926e+09
7.4948173 12.481782 3.3478258 35 14 1.6812926e+09
4.1595144 11.141378 3.1728647 42 15 1.6812926e+09
7.4951391 12.482294 2.2952988 35 12 1.6812926e+09
4.1907611 11.153922 2.3071923 41 13 1.6812926e+09
7.5032268 12.485872 1.2713844 33 10 1.6812926e+09
4.2162952 11.168694 1.4594405 42 11 1.6812926e+09
7.5019565 12.478813 0.2535398 32 8 1.6812926e+09
4.2340755 11.186316 0.62502217 41 9 1.6812926e+09
7.5460367 12.542202 -0.76783109 27 6 1.6812926e+09
4.2379975 11.179005 -0.2080763 41 7 1.6812926e+09
6.9793019 11.586763 -1.6541543 15 4 1.6812926e+09
4.2471514 11.209053 -1.0435649 34 5 1.6812926e+09
4.0046177 6.639267 -1.4975414 22 2 1.6812926e+09
3.4167609 9.0243931 -1.5245676 18 3 1.6812926e+09
3.2345033 5.3547077 -1.6657089 23 0 1.6812926e+09
2.218338 5.8760948 -1.439756 19 1 1.6812926e+09
7.5837588 12.530568 3.3680408 33 14 1.6812926e+09
4.2128587 11.16521 3.1838503 43 15 1.6812926e+09
7.5821452 12.527878 2.3085666 33 12 1.6812926e+09
4.2444649 11.178235 2.3152943 41 13 1.6812926e+09
7.5858741 12.52909 1.2783568 31 10 1.6812926e+09
4.263907 11.182478 1.4630915 44 11 1.6812926e+09
7.5817475 12.512405 0.25476149 31 8 1.6812926e+09
4.2846808 11.201786 0.62672305 41 9 1.6812926e+09
7.6247301 12.573419 -0.77137554 26 6 1.6812926e+09
4.2929034 11.211583 -0.20894893 44 7 1.6812926e+09
7.0493293 11.611114 -1.6611518 15 4 1.6812926e+09
4.3031564 11.238358 -1.0476966 37 5 1.6812926e+09
3.9909117 6.5672331 -1.4842088 22 2 1.6812926e+09
3.5629387 9.3174963 -1.5762479 17 3 1.6812926e+09
3.2660587 5.3666406 -1.6728218 24 0 1.6812926e+09
2.2431693 5.8796997 -1.4425635 21 1 1.6812926e+09
7.6671309 12.573981 3.3865712 57 14 1.6812926e+09
4.2636075 11.187289 3.1941895 42 15 1.6812926e+09
7.6583648 12.559586 2.3191025 59 12 1.6812926e+09
4.2911668 11.189307 2.3205369 42 13 1.6812926e+09
7.6607046 12.553552 1.2835863 63 10 1.6812926e+09
4.3225231 11.218473 1.4697846 46 11 1.6812926e+09
7.6648846 12.555461 0.2561577 40 8 1.6812926e+09
4.345171 11.248075 0.63012493 59 9 1.6812926e+09
7.6989293 12.601321 -0.77465743 27 6 1.6812926e+09
4.3419251 11.222178 -0.20942888 54 7 1.6812926e+09
7.1175809 11.636356 -1.6681494 19 4 1.6812926e+09
4.3547587 11.261198 -1.051176 37 5 1.6812926e+09
3.9817533 6.5009484 -1.4723047 24 2 1.6812926e+09
3.6398852 9.4201832 -1.5958238 18 3 1.6812926e+09
3.2961414 5.3737307 -1.6786413 24 0 1.6812926e+09
2.2687743 5.8881454 -1.4464943 22 1 1.6812926e+09
7.7441459 12.601103 3.401171 32 14 1.6812926e+09
4.3147707 11.203896 3.2032363 42 15 1.6812926e+09
7.7435408 12.600095 2.3315897 32 12 1.6812926e+09
4.3541174 11.236055 2.333405 52 13 1.6812926e+09
7.7427344 12.593843 1.2903408 39 10 1.6812926e+09
4.3668928 11.222581 1.4722186 51 11 1.6812926e+09
7.7427287 12.583977 0.25729209 35 8 1.6812926e+09
4.3916631 11.251447 0.63117158 40 9 1.6812926e+09
7.7821469 12.638141 -0.77859569 26 6 1.6812926e+09
4.3945646 11.247303 -0.21017058 41 7 1.6812926e+09
7.1829033 11.651571 -1.6739299 19 4 1.6812926e+09
4.4085298 11.28305 -1.0546552 38 5 1.6812926e+09
4.0690417 6.5942121 -1.4965891 22 2 1.6812926e+09
nan nan nan 0 3 1.6812926e+09
3.3317235 5.3915262 -1.6876941 23 0 1.6812926e+09
2.2866673 5.8733778 -1.4448098 19 1 1.6812926e+09
7.8128257 12.618845 3.4129629 31 14 1.6812926e+09
4.3711395 11.23905 3.2174528 59 15 1.6812926e+09
7.8203855 12.631028 2.3421259 35 12 1.6812926e+09
4.3967147 11.23527 2.3362646 43 13 1.6812926e+09
7.8312554 12.638714 1.2977489 34 10 1.6812926e+09
4.4223671 11.248845 1.477695 41 11 1.6812926e+09
7.8212976 12.617715 0.25851375 33 8 1.6812926e+09
4.4435835 11.27399 0.63326502 41 9 1.6812926e+09
7.8556051 12.663177 -0.78174633 29 6 1.6812926e+09
4.4475522 11.266774 -0.21082506 44 7 1.6812926e+09
7.2620935 11.693029 -1.6833613 19 4 1.6812926e+09
4.4605317 11.305442 -1.0581344 35 5 1.6812926e+09
4.1179662 6.6216445 -1.5061125 22 2 1.6812926e+09
3.5447218 8.9908295 -1.5269169 18 3 1.6812926e+09
3.36585 5.404458 -1.6954536 25 0 1.6812926e+09
2.3088007 5.8725667 -1.4464943 21 1 1.6812926e+09
7.9032612 12.665895 3.4331779 38 14 1.6812926e+09
4.419168 11.246204 3.2239149 41 15 1.6812926e+09
7.8997297 12.660213 2.3526618 46 12 1.6812926e+09
4.4521317 11.260941 2.3448434 41 13 1.6812926e+09
7.9140143 12.678164 1.3045036 56 10 1.6812926e+09
4.4789925 11.277163 1.4834754 42 11 1.6812926e+09
7.9076805 12.658171 0.25990996 59 8 1.6812926e+09
4.5004416 11.302486 0.63575101 42 9 1.6812926e+09
7.9355006 12.692831 -0.78529078 27 6 1.6812926e+09
4.5072041 11.302269 -0.21178493 41 7 1.6812926e+09
7.321301 11.697053 -1.6876206 21 4 1.6812926e+09
4.5176063 11.32835 -1.0618311 37 5 1.6812926e+09
4.1527886 6.6259427 -1.5103979 23 2 1.6812926e+09
3.5852094 9.0013437 -1.5308319 18 3 1.6812926e+09
3.40396 5.4233518 -1.705153 25 0 1.6812926e+09
2.3347991 5.8753877 -1.449302 21 1 1.6812926e+09
7.9746642 12.681536 3.4449699 37 14 1.6812926e+09
4.4735317 11.268874 3.2349002 41 15 1.6812926e+09
7.9859467 12.69945 2.365149 37 12 1.6812926e+09
4.5114193 11.295477 2.3553283 42 13 1.6812926e+09
7.9896169 12.69544 1.3092972 34 10 1.6812926e+09
4.5303307 11.291403 1.4874307 47 11 1.6812926e+09
7.9953246 12.694664 0.26126251 32 8 1.6812926e+09
4.5558043 11.320662 0.63771361 42 9 1.6812926e+09
8.0179186 12.720681 -0.78883523 27 6 1.6812926e+09
4.5559607 11.309655 -0.21222125 44 7 1.6812926e+09
7.3614745 11.665944 -1.6870122 21 4 1.6812926e+09
4.5729284 11.351789 -1.0655279 37 5 1.6812926e+09
4.1890039 6.632154 -1.5151596 22 2 1.6812926e+09
3.6792066 9.1445723 -1.5574551 19 3 1.6812926e+09
3.4357853 5.4318428 -1.7116194 24 0 1.6812926e+09
2.3607292 5.8807702 -1.4526711 22 1 1.6812926e+09
8.047183 12.693368 3.4562006 32 14 1.6812926e+09
4.5318747 11.294995 3.2471783 41 15 1.6812926e+09
8.0721121 12.732656 2.3768559 32 12 1.6812926e+09
4.5537071 11.281144 2.3558049 40 13 1.6812926e+09
8.0672369 12.72005 1.3147444 30 10 1.6812926e+09
4.5912476 11.323021 1.4938197 44 11 1.6812926e+09
8.0784407 12.727877 0.26252779 35 8 1.6812926e+09
4.6187749 11.362519 0.64098459 56 9 1.6812926e+09
8.1037769 12.757938 -0.79290473 27 6 1.6812926e+09
4.6170592 11.346944 -0.21322477 55 7 1.6812926e+09
7.3954921 11.629707 -1.685491 19 4 1.6812926e+09
4.6265922 11.370366 -1.0687897 35 5 1.6812926e+09
4.2264705 6.6374545 -1.5199213 22 2 1.6812926e+09
3.681114 9.0532417 -1.5441436 19 3 1.6812926e+09
3.4780996 5.4564657 -1.7232586 23 0 1.6812926e+09
2.3867252 5.886044 -1.4560404 22 1 1.6812926e+09
8.1412907 12.743206 3.4775386 30 14 1.6812926e+09
4.5857739 11.314924 3.2575176 41 15 1.6812926e+09
8.1470909 12.75226 2.3858309 29 12 1.6812926e+09
4.631937 11.36064 2.3758218 51 13 1.6812926e+09
8.1612225 12.76945 1.3228062 35 10 1.6812926e+09
4.6438985 11.339078 1.4980791 52 11 1.6812926e+09
8.1740112 12.779613 0.26418579 51 8 1.6812926e+09
4.6603036 11.350946 0.64124626 44 9 1.6812926e+09
8.189992 12.794752 -0.7969743 27 6 1.6812926e+09
4.6708789 11.365443 -0.21387923 41 7 1.6812926e+09
7.4373822 11.605911 -1.6857953 1 4 1.6812926e+09
4.6823339 11.393313 -1.0724864 37 5 1.6812926e+09
4.2509394 6.6247263 -1.5203974 23 2 1.6812926e+09
3.6508555 8.8895617 -1.5183034 16 3 1.6812926e+09
3.5114882 5.4666381 -1.7303716 24 0 1.6812926e+09
2.411865 5.8889523 -1.4588479 22 1 1.6812926e+09
8.2318859 12.786396 3.4971921 43 14 1.6812926e+09
4.6499224 11.359203 3.2749653 60 15 1.6812926e+09
8.2329988 12.788102 2.3979278 40 12 1.6812926e+09
4.6743655 11.35121 2.3772516 44 13 1.6812926e+09
8.2354183 12.786945 1.3275999 33 10 1.6812926e+09
4.6986127 11.359492 1.5029469 41 11 1.6812926e+09
8.233469 12.774111 0.26466572 34 8 1.6812926e+09
4.7218719 11.38766 0.64425558 41 9 1.6812926e+09
8.2765627 12.831119 -0.80104387 26 6 1.6812926e+09
4.727756 11.390632 -0.21466459 43 7 1.6812926e+09
6.5838475 10.195845 -1.4837798 17 4 1.6812926e+09
4.7411537 11.422913 -1.0768355 37 5 1.6812926e+09
4.294034 6.6407566 -1.5275398 22 2 1.6812926e+09
3.7810786 9.1162891 -1.5594127 18 3 1.6812926e+09
3.5528662 5.4888053 -1.7413642 24 0 1.6812926e+09
2.4324067 5.880497 -1.4588479 21 1 1.6812926e+09
8.312274 12.812759 3.5123532 35 14 1.6812926e+09
4.6996851 11.367456 3.2820733 40 15 1.6812926e+09
8.317915 12.821431 2.4096346 34 12 1.6812926e+09
4.7262001 11.364287 2.3834474 40 13 1.6812926e+09
8.3220406 12.822878 1.3343544 32 10 1.6812926e+09
4.7573485 11.388823 1.5090317 41 11 1.6812926e+09
8.3352013 12.83333 0.26649824 29 8 1.6812926e+09
4.7731552 11.398748 0.64582568 41 9 1.6812926e+09
8.3689289 12.875406 -0.80563849 26 6 1.6812926e+09
4.7838998 11.413255 -0.21540631 38 7 1.6812926e+09
6.6193967 10.172801 -1.4837798 11 4 1.6812926e+09
4.7925406 11.43386 -1.079445 37 5 1.6812926e+09
4.3158484 6.6236711 -1.5270637 23 2 1.6812926e+09
3.7318842 8.9094152 -1.5261338 19 3 1.6812926e+09
3.5865221 5.4986157 -1.748477 25 0 1.6812926e+09
2.4594798 5.8877101 -1.4627786 19 1 1.6812926e+09
8.3987007 12.852417 3.5308836 31 14 1.6812926e+09
4.752223 11.387475 3.2924128 39 15 1.6812926e+09
8.4036198 12.859921 2.4221218 31 12 1.6812926e+09
4.7875857 11.405132 2.3953621 40 13 1.6812926e+09
8.4081326 12.861911 1.3413268 32 10 1.6812926e+09
4.8124261 11.414148 1.514508 42 11 1.6812926e+09
8.4105606 12.855818 0.26754537 39 8 1.6812926e+09
4.8274369 11.421956 0.64804995 39 9 1.6812926e+09
8.452611 12.910239 -0.80957675 25 6 1.6812926e+09
4.8441534 11.444835 -0.21632256 43 7 1.6812926e+09
nan nan nan 0 4 1.6812926e+09
4.8498816 11.458351 -1.0833592 35 5 1.6812926e+09
4.3337483 6.6031685 -1.5256354 23 2 1.6812926e+09
3.6845756 8.7150135 -1.4948124 18 3 1.6812926e+09
3.6255975 5.5163283 -1.7581763 27 0 1.6812926e+09
2.4828527 5.8858252 -1.4644632 21 1 1.6812926e+09
8.4917517 12.896264 3.5510986 54 14 1.6812926e+09
4.8050623 11.401979 3.3014596 40 15 1.6812926e+09
8.4932795 12.898561 2.4349992 55 12 1.6812926e+09
4.8388505 11.41547 2.4010813 39 13 1.6812926e+09
8.4949656 12.891312 1.3476456 39 10 1.6812926e+09
4.8745756 11.4498 1.5215055 44 11 1.6812926e+09
8.5071735 12.900022 0.2691161 37 8 1.6812926e+09
4.8966932 11.468485 0.65171343 62 9 1.6812926e+09
8.5452614 12.947928 -0.81390887 27 6 1.6812926e+09
4.8948698 11.453142 -0.21680251 56 7 1.6812926e+09
7.200572 10.898518 -1.5972614 30 4 1.6812926e+09
4.9064741 11.48029 -1.0870559 37 5 1.6812926e+09
4.3296866 6.5470653 -1.516112 22 2 1.6812926e+09
3.7275627 8.7316265 -1.499902 21 3 1.6812926e+09
3.6608386 5.5277963 -1.7659359 25 0 1.6812926e+09
2.5005238 5.8703961 -1.4627786 21 1 1.6812926e+09
8.5820789 12.929999 3.5690675 35 14 1.6812926e+09
4.8638339 11.424294 3.3130913 39 15 1.6812926e+09
8.5814724 12.929063 2.4467058 35 12 1.6812926e+09
4.9125109 11.472118 2.4168088 54 13 1.6812926e+09
8.5908918 12.938341 1.3557075 32 10 1.6812926e+09
4.9243054 11.455516 1.5245481 52 11 1.6812926e+09
8.5936594 12.932699 0.27042502 31 8 1.6812926e+09
4.9475589 11.476544 0.6531527 42 9 1.6812926e+09
8.6332684 12.98246 -0.81797838 29 6 1.6812926e+09
4.9546094 11.481894 -0.21767513 41 7 1.6812926e+09
7.2633271 10.910493 -1.6027378 27 4 1.6812926e+09
4.96525 11.506549 -1.0911876 34 5 1.6812926e+09
4.3470688 6.5237432 -1.5142072 23 2 1.6812926e+09
3.8322153 8.8909254 -1.5296575 18 3 1.6812926e+09
3.7002263 5.5451097 -1.7756352 24 0 1.6812926e+09
2.5334914 5.8907347 -1.4700785 19 1 1.6812926e+09
8.6682425 12.966272 3.5870364 30 14 1.6812926e+09
4.9255056 11.463583 3.3292463 60 15 1.6812926e+09
8.6695957 12.968275 2.4595833 29 12 1.6812926e+09
4.95539 11.467031 2.4191918 40 13 1.6812926e+09
8.6692448 12.957949 1.3609369 30 10 1.6812926e+09
4.9830165 11.481513 1.5303285 42 11 1.6812926e+09
8.6698713 12.95398 0.27147216 31 8 1.6812926e+09
5.0054917 11.505869 0.65576953 38 9 1.6812926e+09
8.7304649 13.034651 -0.82309812 29 6 1.6812926e+09
5.0136113 11.508079 -0.21850412 41 7 1.6812926e+09
7.2939382 10.878103 -1.6015208 25 4 1.6812926e+09
5.0192757 11.526561 -1.0946668 34 5 1.6812926e+09
4.4095001 6.5676103 -1.5280161 23 2 1.6812926e+09
3.8356702 8.8140879 -1.518695 17 3 1.6812926e+09
3.7370834 5.5582085 -1.7840415 24 0 1.6812926e+09
2.551075 5.87783 -1.4689554 18 1 1.6812926e+09
8.7733431 13.024832 3.6117437 52 14 1.6812926e+09
4.9808555 11.481775 3.3395855 38 15 1.6812926e+09
8.7755203 13.028041 2.476753 54 12 1.6812926e+09
5.0199013 11.505908 2.4311068 37 13 1.6812926e+09
8.7734127 13.019997 1.370524 43 10 1.6812926e+09
5.0429649 11.509513 1.5364133 41 11 1.6812926e+09
8.7653551 12.99824 0.27304289 39 8 1.6812926e+09
5.0576611 11.51576 0.65733957 40 9 1.6812926e+09
8.8108301 13.055828 -0.82638001 27 6 1.6812926e+09
5.0718508 11.531699 -0.21928947 43 7 1.6812926e+09
7.2804585 10.776505 -1.5902638 24 4 1.6812926e+09
5.080524 11.551409 -1.0987984 35 5 1.6812926e+09
4.3925061 6.4932365 -1.5142072 23 2 1.6812926e+09
3.8753424 8.8209944 -1.5222185 17 3 1.6812926e+09
3.7686567 5.5631208 -1.7898612 22 0 1.6812926e+09
2.5843186 5.8952222 -1.4756937 19 1 1.6812926e+09
8.8474874 13.036453 3.6235356 33 14 1.6812926e+09
5.0392957 11.506357 3.3518634 43 15 1.6812926e+09
8.843133 13.030019 2.4829967 38 12 1.6812926e+09
5.0679407 11.506285 2.4349196 40 13 1.6812926e+09
8.8532629 13.035136 1.3755355 33 10 1.6812926e+09
5.0991573 11.528155 1.5412812 42 11 1.6812926e+09
8.8607197 13.03631 0.27452633 32 8 1.6812926e+09
5.1180406 11.538231 0.65969467 42 9 1.6812926e+09
8.9105835 13.099819 -0.83123726 26 6 1.6812926e+09
5.1333561 11.561908 -0.22020572 46 7 1.6812926e+09
7.4107065 10.883056 -1.6100395 26 4 1.6812926e+09
5.1400013 11.576859 -1.1029301 35 5 1.6812926e+09
4.4663033 6.5528879 -1.5318254 22 2 1.6812926e+09
3.9291089 8.8593397 -1.5312235 17 3 1.6812926e+09
3.8112054 5.5838332 -1.8008537 22 0 1.6812926e+09
2.5979917 5.8705668 -1.471763 21 1 1.6812926e+09
8.93923 13.068276 3.6415045 31 14 1.6812926e+09
5.0980287 11.525363 3.3628488 38 15 1.6812926e+09
8.9521856 13.087191 2.5001667 31 12 1.6812926e+09
5.1320052 11.536971 2.4454045 41 13 1.6812926e+09
8.9366913 13.059643 1.3814185 27 10 1.6812926e+09
5.1605949 11.557875 1.5476702 51 11 1.6812926e+09
8.9428978 13.05892 0.27566075 27 8 1.6812926e+09
5.1827526 11.57499 0.66283488 56 9 1.6812926e+09
9.0028372 13.13659 -0.83556932 26 6 1.6812926e+09
5.1879849 11.575859 -0.22081657 47 7 1.6812926e+09
7.3644066 10.734362 -1.5917851 26 4 1.6812926e+09
5.2017541 11.606583 -1.1074966 35 5 1.6812926e+09
4.5058274 6.5615325 -1.5375395 22 2 1.6812926e+09
4.0224957 8.9853249 -1.5554975 17 3 1.6812926e+09
3.8498375 5.5983491 -1.8099065 23 0 1.6812926e+09
2.6273961 5.8814869 -1.4768168 21 1 1.6812926e+09
9.0087805 13.076675 3.6521738 1 14 1.6812926e+09
5.1539221 11.548096 3.3744805 43 15 1.6812926e+09
9.0529823 13.1408 2.5161657 1 12 1.6812926e+09
5.1933284 11.571395 2.4563661 57 13 1.6812926e+09
9.0387774 13.110378 1.3901341 1 10 1.6812926e+09
5.2172084 11.575993 1.552538 41 11 1.6812926e+09
9.0443487 13.11355 0.27744961 1 8 1.6812926e+09
5.2375393 11.594149 0.66492832 40 9 1.6812926e+09
9.0945759 13.176516 -0.8400327 26 6 1.6812926e+09
5.2510071 11.607791 -0.22177644 40 7 1.6812926e+09
7.4295902 10.752749 -1.5981741 26 4 1.6812926e+09
5.2586694 11.630123 -1.1114109 35 5 1.6812926e+09
4.5482593 6.5740156 -1.5442058 22 2 1.6812926e+09
4.0325065 8.9239664 -1.5472758 18 3 1.6812926e+09
3.8872416 5.6106772 -1.8183126 24 0 1.6812926e+09
2.650883 5.8816285 -1.4790629 19 1 1.6812926e+09
nan nan nan 0 14 1.6812926e+09
5.2150154 11.576283 3.388051 50 15 1.6812926e+09
nan nan nan 0 12 1.6812926e+09
5.2478552 11.584499 2.4630387 38 13 1.6812926e+09
nan nan nan 0 10 1.6812926e+09
5.2750654 11.601554 1.5583186 38 11 1.6812926e+09
nan nan nan 0 8 1.6812926e+09
5.296648 11.62216 0.66754514 40 9 1.6812926e+09
9.186676 13.215978 -0.84449613 27 6 1.6812926e+09
5.3029523 11.61988 -0.22234364 41 7 1.6812926e+09
7.4666243 10.730089 -1.5984783 22 4 1.6812926e+09
5.3157973 11.653414 -1.115325 33 5 1.6812926e+09
4.5658236 6.5528564 -1.5427772 24 2 1.6812926e+09
4.0809765 8.9562006 -1.5551059 19 3 1.6812926e+09
3.9186692 5.6182413 -1.8247789 23 0 1.6812926e+09
2.6754062 5.8838978 -1.4818705 19 1 1.6812926e+09
nan nan nan 0 14 1.6812926e+09
5.2713184 11.603827 3.400975 37 15 1.6812926e+09
nan nan nan 0 12 1.6812926e+09
5.3025622 11.608143 2.4716172 39 13 1.6812926e+09
12.151472 17.382915 1.8524953 1 10 1.6812926e+09
5.3279819 11.61558 1.5625781 40 11 1.6812926e+09
12.04156 17.212904 0.36606422 1 8 1.6812926e+09
5.3539166 11.645369 0.66990018 43 9 1.6812926e+09
9.2777061 13.252928 -0.84882814 25 6 1.6812926e+09
5.3582249 11.644043 -0.223129 41 7 1.6812926e+09
7.4162807 10.586681 -1.5805281 23 4 1.6812926e+09
5.3783398 11.687767 -1.1203265 32 5 1.6812926e+09
4.5906172 6.5445075 -1.5442058 25 2 1.6812926e+09
4.0694461 8.8528605 -1.5394454 18 3 1.6812926e+09
3.94561 5.6170707 -1.8286586 23 0 1.6812926e+09
2.7040305 5.8949285 -1.4869243 22 1 1.6812926e+09
nan nan nan 0 14 1.6812926e+09
5.3328919 11.636788 3.4158378 38 15 1.6812926e+09
nan nan nan 0 12 1.6812926e+09
5.3595004 11.630621 2.4801958 42 13 1.6812926e+09
12.168903 17.285509 1.8463944 3 10 1.6812926e+09
5.3883367 11.645147 1.5689671 42 11 1.6812926e+09
12.13169 17.219873 0.36706772 3 8 1.6812926e+09
5.4113965 11.668324 0.67225534 46 9 1.6812926e+09
9.3676434 13.287377 -0.85302895 25 6 1.6812926e+09
5.4219823 11.675154 -0.22408889 60 7 1.6812926e+09
7.4703631 10.585055 -1.584179 23 4 1.6812926e+09
5.4337792 11.700551 -1.1233709 33 5 1.6812926e+09
4.6247683 6.5444751 -1.548015 22 2 1.6812926e+09
4.0930572 8.8229189 -1.5367048 18 3 1.6812926e+09
3.9665885 5.6052346 -1.8293053 19 0 1.6812926e+09
2.7276566 5.8920879 -1.488609 22 1 1.6812926e+09
9.6148891 13.562519 3.8240008 1 14 1.6812926e+09
5.3896871 11.653178 3.426177 39 15 1.6812926e+09
9.5829887 13.517509 2.6129415 1 12 1.6812926e+09
5.4238501 11.663033 2.4911578 43 13 1.6812926e+09
12.20335 17.200171 1.8420367 4 10 1.6812926e+09
5.4488854 11.668994 1.5747476 58 11 1.6812926e+09
11.417537 16.080879 0.34363785 2 8 1.6812926e+09
5.4752841 11.69364 0.6748721 44 9 1.6812926e+09
9.4683437 13.326215 -0.85775489 26 6 1.6812926e+09
5.480722 11.694639 -0.22483061 39 7 1.6812926e+09
7.5896654 10.670832 -1.6012164 23 4 1.6812926e+09
5.5031033 11.742412 -1.1292422 32 5 1.6812926e+09
4.6532793 6.5362878 -1.5499197 23 2 1.6812926e+09
4.1374259 8.8376551 -1.5417944 17 3 1.6812926e+09
3.9847281 5.5893884 -1.8286586 21 0 1.6812926e+09
2.7585027 5.9046092 -1.4942241 22 1 1.6812926e+09
9.7778463 13.685753 3.8689232 2 14 1.6812926e+09
5.454824 11.681494 3.4403934 51 15 1.6812926e+09
9.7631178 13.665123 2.6484516 2 12 1.6812926e+09
5.4842782 11.680846 2.4992597 46 13 1.6812926e+09
12.253177 17.143284 1.8405114 1 10 1.6812926e+09
5.5127645 11.693842 1.5808324 39 11 1.6812926e+09
11.509959 16.091751 0.34472862 6 8 1.6812926e+09
5.5384498 11.721867 0.67761976 38 9 1.6812926e+09
9.5671225 13.366161 -0.86248082 26 6 1.6812926e+09
5.5503421 11.736458 -0.22600865 41 7 1.6812926e+09
7.648551 10.674528 -1.6057801 24 4 1.6812926e+09
5.5621462 11.761411 -1.1329389 32 5 1.6812926e+09
4.6886544 6.53514 -1.5537292 26 2 1.6812926e+09
4.2193298 8.9273748 -1.5601957 16 3 1.6812926e+09
4.0028052 5.5734839 -1.828012 19 0 1.6812926e+09
2.7915437 5.9213963 -1.5009625 21 1 1.6812926e+09
9.8696804 13.712829 3.8863304 4 14 1.6812926e+09
5.5161405 11.706083 3.4533176 41 15 1.6812926e+09
9.8756819 13.721144 2.666012 4 12 1.6812926e+09
5.5502176 11.714869 2.5106981 37 13 1.6812926e+09
9.8532858 13.684985 1.4722784 2 10 1.6812926e+09
5.5801787 11.730557 1.5884384 40 11 1.6812926e+09
9.8663788 13.693073 0.29398575 4 8 1.6812926e+09
5.5997319 11.745288 0.68010575 37 9 1.6812926e+09
9.6648331 13.403553 -0.86707544 32 6 1.6812926e+09
5.6117144 11.759881 -0.22683764 40 7 1.6812926e+09
7.6509037 10.59948 -1.5984783 23 4 1.6812926e+09
5.6288905 11.795879 -1.1381577 32 5 1.6812926e+09
4.7171893 6.5266881 -1.5556337 25 2 1.6812926e+09
4.2324157 8.8746977 -1.55354 18 3 1.6812926e+09
4.0222359 5.5594778 -1.828012 18 0 1.6812926e+09
2.8027918 5.8918095 -1.4959087 18 1 1.6812926e+09
9.9103355 13.668431 3.8835227 9 14 1.6812926e+09
5.5787306 11.732566 3.4668877 35 15 1.6812926e+09
9.8974228 13.650604 2.658988 9 12 1.6812926e+09
5.6122298 11.739712 2.5202298 37 13 1.6812926e+09
9.8980694 13.646475 1.4718425 9 10 1.6812926e+09
5.6404057 11.751282 1.5939147 41 11 1.6812926e+09
9.8964939 13.634277 0.29346222 11 8 1.6812926e+09
5.6655707 11.777424 0.68311507 42 9 1.6812926e+09
9.7687922 13.448505 -0.87219518 31 6 1.6812926e+09
5.6744018 11.785272 -0.22771026 48 7 1.6812926e+09
7.699533 10.588763 -1.6009122 24 4 1.6812926e+09
5.689465 11.816556 -1.142072 32 5 1.6812926e+09
4.7515025 6.526053 -1.5594431 25 2 1.6812926e+09
4.2483935 8.8287134 -1.5480587 19 3 1.6812926e+09
4.0416174 5.5454035 -1.828012 23 0 1.6812926e+09
2.8401828 5.9171419 -1.5048932 21 1 1.6812926e+09
9.9709215 13.65146 3.8885767 49 14 1.6812926e+09
5.6405282 11.756577 3.4798119 34 15 1.6812926e+09
9.9610338 13.637906 2.6632805 54 12 1.6812926e+09
5.6712875 11.757635 2.528332 37 13 1.6812926e+09
9.9485836 13.615864 1.4722784 52 10 1.6812926e+09
5.7062488 11.782897 1.6009122 52 11 1.6812926e+09
9.9322205 13.583508 0.29311314 65 8 1.6812926e+09
5.7262554 11.798011 0.68547016 57 9 1.6812926e+09
9.8702326 13.488866 -0.87705243 33 6 1.6812926e+09
5.7329693 11.801373 -0.22840835 46 7 1.6812926e+09
7.6689844 10.469747 -1.5869173 22 4 1.6812926e+09
5.7535148 11.843677 -1.1466385 31 5 1.6812926e+09
4.7786098 6.5153627 -1.5608715 23 2 1.6812926e+09
4.1789904 8.6072102 -1.5116477 17 3 1.6812926e+09
4.0623798 5.5332084 -1.8286586 25 0 1.6812926e+09
2.8480971 5.8808727 -1.4981549 19 1 1.6812926e+09
9.9809713 13.565557 3.8739767 59 14 1.6812926e+09
5.7036133 11.782473 3.4933822 39 15 1.6812926e+09
9.9719887 13.553331 2.6535249 72 12 1.6812926e+09
5.7348304 11.784117 2.5383403 54 13 1.6812926e+09
9.9665213 13.540939 1.4679205 65 10 1.6812926e+09
5.7658491 11.800815 1.6060842 41 11 1.6812926e+09
9.9691973 13.534668 0.29280773 86 8 1.6812926e+09
5.7893462 11.822802 0.68808699 38 9 1.6812926e+09
9.9779997 13.536718 -0.88243479 32 6 1.6812926e+09
5.7906179 11.814963 -0.22906283 38 7 1.6812926e+09
7.6259112 10.335101 -1.5704882 22 4 1.6812926e+09
5.8112512 11.857072 -1.1499003 30 5 1.6812926e+09
4.8232059 6.5282469 -1.568014 23 2 1.6812926e+09
4.2252865 8.6258402 -1.5175203 17 3 1.6812926e+09
4.0802331 5.5170522 -1.828012 24 0 1.6812926e+09
2.8632679 5.8599467 -1.4953471 21 1 1.6812926e+09
10.044221 13.55216 3.8801537 39 14 1.6812926e+09
5.762711 11.79939 3.5043678 48 15 1.6812926e+09
10.035415 13.54026 2.6578174 35 12 1.6812926e+09
5.7953844 11.803686 2.5469191 35 13 1.6812926e+09
10.022629 13.518071 1.4692279 40 10 1.6812926e+09
5.83003 11.827363 1.6124734 37 11 1.6812926e+09
10.037237 13.52789 0.29341859 37 8 1.6812926e+09
5.8504705 11.842819 0.69044209 38 9 1.6812926e+09
10.084729 13.581975 -0.88768572 31 6 1.6812926e+09
5.8595023 11.850705 -0.23015361 38 7 1.6812926e+09
7.6412144 10.28054 -1.5662289 24 4 1.6812926e+09
5.8735633 11.87914 -1.154032 30 5 1.6812926e+09
4.8870029 6.5664887 -1.5813466 23 2 1.6812926e+09
4.2728562 8.6464653 -1.5237846 18 3 1.6812926e+09
4.1037955 5.508585 -1.8299519 25 0 1.6812926e+09
2.8837054 5.849916 -1.4953471 23 1 1.6812926e+09
10.155601 13.602904 3.904861 66 14 1.6812926e+09
5.8251963 11.822536 3.517292 35 15 1.6812926e+09
10.146149 13.590227 2.674597 51 12 1.6812926e+09
5.8670301 11.844971 2.5602636 34 13 1.6812926e+09
10.142787 13.580771 1.4799045 55 10 1.6812926e+09
5.8955698 11.85583 1.6191666 34 11 1.6812926e+09
10.144262 13.572852 0.29516381 44 8 1.6812926e+09
5.9184804 11.87596 0.69358224 37 9 1.6812926e+09
10.185915 13.618657 -0.89241165 32 6 1.6812926e+09
5.9307809 11.885074 -0.23124437 42 7 1.6812926e+09
7.6532536 10.222027 -1.5613611 25 4 1.6812926e+09
5.9470673 11.917711 -1.1599033 31 5 1.6812926e+09
4.9069495 6.5454631 -1.5803943 23 2 1.6812926e+09
4.2435808 8.5121393 -1.5026426 18 3 1.6812926e+09
4.1239586 5.4935069 -1.8299519 25 0 1.6812926e+09
2.8747871 5.7782149 -1.4796244 18 1 1.6812926e+09
10.241095 13.61799 3.9194603 32 14 1.6812926e+09
5.8922095 11.854042 3.5328007 35 15 1.6812926e+09
10.243994 13.621822 2.6878643 31 12 1.6812926e+09
5.9247837 11.857356 2.5674126 37 13 1.6812926e+09
10.250908 13.621105 1.4884021 38 10 1.6812926e+09
5.9636025 11.88842 1.6264684 43 11 1.6812926e+09
10.26162 13.625424 0.29712719 41 8 1.6812926e+09
5.9955978 11.92111 0.69750738 64 9 1.6812926e+09
10.297379 13.662971 -0.89779401 35 6 1.6812926e+09
5.9924483 11.904496 -0.23202974 55 7 1.6812926e+09
7.686183 10.187963 -1.5604483 24 4 1.6812926e+09
6.0098934 11.939154 -1.1640348 32 5 1.6812926e+09
4.9342051 6.5341697 -1.5818228 24 2 1.6812926e+09
4.2998667 8.55023 -1.5120391 17 3 1.6812926e+09
4.1460233 5.4829297 -1.8312452 25 0 1.6812926e+09
2.8982129 5.7746792 -1.4813091 21 1 1.6812926e+09
10.351272 13.659964 3.9424832 30 14 1.6812926e+09
5.9637527 11.888502 3.5496023 38 15 1.6812926e+09
10.36545 13.678649 2.7065954 32 12 1.6812926e+09
5.9958096 11.890352 2.5793276 57 13 1.6812926e+09
10.375132 13.686453 1.4995146 50 10 1.6812926e+09
6.0261755 11.904124 1.6316404 51 11 1.6812926e+09
10.383153 13.687095 0.29926512 58 8 1.6812926e+09
6.0563622 11.937965 0.69973171 42 9 1.6812926e+09
10.402378 13.702497 -0.90278244 34 6 1.6812926e+09
6.0565839 11.928087 -0.23290235 41 7 1.6812926e+09
7.8148012 10.283552 -1.5793113 23 4 1.6812926e+09
6.0695605 11.953639 -1.1675141 32 5 1.6812926e+09
4.9432554 6.4965129 -1.5770612 22 2 1.6812926e+09
4.3724813 8.6159 -1.5265253 19 3 1.6812926e+09
4.1607456 5.4626622 -1.8293053 26 0 1.6812926e+09
2.9513164 5.8297563 -1.4981549 19 1 1.6812926e+09
10.463935 13.708945 3.9671905 41 14 1.6812926e+09
6.0291862 11.915028 3.5638185 57 15 1.6812926e+09
10.462581 13.707152 2.7194724 32 12 1.6812926e+09
6.059516 11.913109 2.5888596 38 13 1.6812926e+09
10.468192 13.709529 1.5060512 42 10 1.6812926e+09
6.0823517 11.911753 1.6355957 35 11 1.6812926e+09
10.474885 13.708361 0.3005304 42 8 1.6812926e+09
6.0889049 11.898969 0.69868499 32 9 1.6812926e+09
10.513847 13.749391 -0.90829599 32 6 1.6812926e+09
6.0811038 11.873496 -0.23224789 31 7 1.6812926e+09
7.9094825 10.33305 -1.5911766 23 4 1.6812926e+09
6.0681372 11.848131 -1.1592509 27 5 1.6812926e+09
4.9972634 6.5201187 -1.5870606 22 2 1.6812926e+09
4.3845453 8.5654106 -1.5202609 21 3 1.6812926e+09
4.1871409 5.4576836 -1.8325385 25 0 1.6812926e+09
2.978286 5.8324404 -1.501524 22 1 1.6812926e+09
10.577065 13.757305 3.9918973 35 14 1.6812926e+09
6.0871983 11.92618 3.5735116 38 15 1.6812926e+09
10.578104 13.758637 2.7370327 31 12 1.6812926e+09
6.098824 11.887516 2.5879061 30 13 1.6812926e+09
10.593429 13.773579 1.5171635 40 10 1.6812926e+09
6.106864 11.857352 1.6310321 30 11 1.6812926e+09
10.583663 13.750941 0.30227566 35 8 1.6812926e+09
6.1155272 11.848797 0.69698411 31 9 1.6812926e+09
10.624245 13.793694 -0.91367835 33 6 1.6812926e+09
6.1030231 11.814436 -0.23150615 48 7 1.6812926e+09
7.9000421 10.24643 -1.5820494 23 4 1.6812926e+09
6.0957503 11.800319 -1.1566414 37 5 1.6812926e+09
4.9554858 6.4191127 -1.5665854 23 2 1.6812926e+09
4.4370513 8.5939436 -1.5280913 19 3 1.6812926e+09
4.207643 5.4449444 -1.833185 23 0 1.6812926e+09
2.9919434 5.8090096 -1.4981549 22 1 1.6812926e+09
10.704086 13.822376 4.0216584 67 14 1.6812926e+09
6.1155357 11.879088 3.5657573 31 15 1.6812926e+09
10.701673 13.819239 2.7565439 44 12 1.6812926e+09
6.1301379 11.846535 2.583617 29 13 1.6812926e+09
10.702458 13.815264 1.5258791 63 10 1.6812926e+09
6.1527886 11.844772 1.632249 23 11 1.6812926e+09
10.700524 13.802804 0.30423903 46 8 1.6812926e+09
6.1706743 11.853957 0.69855416 23 9 1.6812926e+09
10.736609 13.839363 -0.9191919 34 6 1.6812926e+09
6.1823149 11.866228 -0.23294598 23 7 1.6812926e+09
7.961638 10.252104 -1.5872214 23 4 1.6812926e+09
6.1806045 11.862915 -1.1649047 22 5 1.6812926e+09
4.953752 6.3707814 -1.5589668 17 2 1.6812926e+09
4.4795561 8.602499 -1.532398 18 3 1.6812926e+09
4.2251406 5.4283185 -1.8325385 19 0 1.6812926e+09
3.02566 5.824482 -1.5048932 22 1 1.6812926e+09
10.801721 13.848311 4.0401888 30 14 1.6812926e+09
6.1458421 11.836231 3.5592952 29 15 1.6812926e+09
10.81212 13.861623 2.772543 30 12 1.6812926e+09
6.1782608 11.83812 2.5864766 22 13 1.6812926e+09
10.819571 13.866171 1.5356841 38 10 1.6812926e+09
6.2378273 11.906764 1.6438102 23 11 1.6812926e+09
10.820953 13.857959 0.3062897 37 8 1.6812926e+09
6.2908778 11.982683 0.70745128 30 9 1.6812926e+09
10.847886 13.882451 -0.92457426 33 6 1.6812926e+09
6.3271093 12.041545 -0.23682915 37 7 1.6812926e+09
7.8383517 10.021001 -1.5555804 23 4 1.6812926e+09
6.3470078 12.079419 -1.1883898 30 5 1.6812926e+09
4.9184403 6.2800412 -1.5408727 17 2 1.6812926e+09
4.4980869 8.5649443 -1.5284829 22 3 1.6812926e+09
4.2500243 5.4211378 -1.8351249 13 0 1.6812926e+09
3.0312955 5.7858219 -1.4975934 21 1 1.6812926e+09
10.917728 13.896722 4.0654578 42 14 1.6812926e+09
6.2184711 11.874622 3.577389 21 15 1.6812926e+09
10.93215 13.915054 2.7908835 49 12 1.6812926e+09
6.3177843 12.003282 2.6274633 30 13 1.6812926e+09
10.94794 13.930135 1.5470145 75 10 1.6812926e+09
6.3558092 12.029748 1.66389 34 11 1.6812926e+09
10.943442 13.914403 0.308384 89 8 1.6812926e+09
6.3805318 12.051128 0.7128157 41 9 1.6812926e+09
10.968858 13.936699 -0.93074423 32 6 1.6812926e+09
6.3948359 12.067986 -0.23778903 37 7 1.6812926e+09
7.9838681 10.133905 -1.5774858 22 4 1.6812926e+09
6.4159374 12.107815 -1.1933912 30 5 1.6812926e+09
5.0178728 6.3610888 -1.5651571 19 2 1.6812926e+09
4.5314207 8.5557384 -1.5296575 19 3 1.6812926e+09
4.2614365 5.3967943 -1.8318918 10 0 1.6812926e+09
3.0878429 5.8441572 -1.5155622 21 1 1.6812926e+09
11.047811 13.961679 4.0957799 35 14 1.6812926e+09
6.3579392 12.038667 3.6336088 32 15 1.6812926e+09
11.03276 13.942643 2.8041513 38 12 1.6812926e+09
6.3941422 12.046199 2.6417615 37 13 1.6812926e+09
11.042877 13.950411 1.5535511 40 10 1.6812926e+09
6.4280801 12.064438 1.6718001 32 11 1.6812926e+09
11.046276 13.944691 0.3099111 35 8 1.6812926e+09
6.4425359 12.066229 0.71503997 39 9 1.6812926e+09
11.079481 13.976575 -0.93599516 32 6 1.6812926e+09
6.4743562 12.11061 -0.23909795 38 7 1.6812926e+09
7.9250894 9.9874153 -1.5589271 22 4 1.6812926e+09
6.4919553 12.143531 -1.1992625 30 5 1.6812926e+09
5.0812788 6.3954072 -1.5780135 18 2 1.6812926e+09
4.5426626 8.5050125 -1.5233932 21 3 1.6812926e+09
4.2811885 5.3811393 -1.8318918 10 0 1.6812926e+09
3.1229751 5.8586073 -1.5223005 22 1 1.6812926e+09
11.152663 13.993513 4.1165566 38 14 1.6812926e+09
6.4214797 12.056907 3.6458864 33 15 1.6812926e+09
11.147549 13.987078 2.820931 33 12 1.6812926e+09
6.4685602 12.0844 2.6551061 33 13 1.6812926e+09
11.151397 13.981879 1.561613 33 10 1.6812926e+09
6.5065398 12.1097 1.6812316 40 11 1.6812926e+09
11.162809 13.986158 0.31174359 33 8 1.6812926e+09
6.5364132 12.134867 0.72053528 54 9 1.6812926e+09
11.20387 14.027549 -0.94216514 32 6 1.6812926e+09
6.5414848 12.13415 -0.24001421 56 7 1.6812926e+09
7.8733039 9.8478394 -1.5415853 23 4 1.6812926e+09
6.5532026 12.155877 -1.2027417 30 5 1.6812926e+09
5.0943689 6.3661351 -1.5751565 24 2 1.6812926e+09
4.5770025 8.4978018 -1.5249592 19 3 1.6812926e+09
4.3029671 5.3699307 -1.833185 10 0 1.6812926e+09
3.1203678 5.804739 -1.51107 22 1 1.6812926e+09
11.281677 14.049409 4.1451945 43 14 1.6812926e+09
6.4964705 12.090739 3.6633341 33 15 1.6812926e+09
11.271417 14.036614 2.8392715 41 12 1.6812926e+09
6.5489354 12.127564 2.6698804 50 13 1.6812926e+09
11.27345 14.034118 1.5718539 40 10 1.6812926e+09
6.5674248 12.11632 1.685491 55 11 1.6812926e+09
11.282043 14.03477 0.31370699 32 8 1.6812926e+09
6.5977859 12.147085 0.72262871 33 9 1.6812926e+09
11.316935 14.068106 -0.9475475 30 6 1.6812926e+09
6.6076632 12.155171 -0.24088682 34 7 1.6812926e+09
7.9558845 9.8802042 -1.5510169 24 4 1.6812926e+09
6.621747 12.181075 -1.2075257 30 5 1.6812926e+09
5.1130457 6.341691 -1.573728 23 2 1.6812926e+09
4.6163621 8.4961605 -1.5276998 18 3 1.6812926e+09
4.3171344 5.3492413 -1.8312452 10 0 1.6812926e+09
3.151046 5.8130946 -1.5161238 21 1 1.6812926e+09
11.393467 14.087597 4.1682172 34 14 1.6812926e+09
6.5823274 12.148694 3.6878898 60 15 1.6812926e+09
11.388677 14.081656 2.8564413 35 12 1.6812926e+09
6.6053033 12.1305 2.6755996 32 13 1.6812926e+09
11.389734 14.07793 1.5812231 37 10 1.6812926e+09
6.6453595 12.158655 1.6946182 34 11 1.6812926e+09
11.386024 14.063293 0.31523407 29 8 1.6812926e+09
6.6653161 12.169971 0.72537631 38 9 1.6812926e+09
11.446134 14.127437 -0.95424247 32 6 1.6812926e+09
6.6812716 12.189034 -0.24202123 34 7 1.6812926e+09
7.8949637 9.7348223 -1.5324582 23 4 1.6812926e+09
6.7013144 12.225601 -1.2142669 29 5 1.6812926e+09
5.161458 6.3561864 -1.5818228 24 2 1.6812926e+09
4.6483622 8.4843264 -1.5284829 18 3 1.6812926e+09
4.3388276 5.3378863 -1.8325385 10 0 1.6812926e+09
3.1514809 5.7657061 -1.5065777 21 1 1.6812926e+09
11.517969 14.140285 4.1957321 66 14 1.6812926e+09
6.6385798 12.151079 3.6956444 31 15 1.6812926e+09
11.528224 14.152854 2.8790743 66 12 1.6812926e+09
6.6877408 12.180523 2.6918037 38 13 1.6812926e+09
11.531635 14.151987 1.5940784 73 10 1.6812926e+09
6.7140942 12.183204 1.7013115 33 11 1.6812926e+09
11.528253 14.137749 0.3178083 41 8 1.6812926e+09
