# .PCD v0.7 - Point Cloud Data file format
VERSION 0.7
FIELDS x y z intensity ring timestamp
SIZE 4 4 4 4 2 8
TYPE F F F F U F
COUNT 1 1 1 1 1 1
WIDTH 939
HEIGHT 1
VIEWPOINT 0 0 0 1 0 0 0
POINTS 939
DATA ascii
-6.6966858 -8.4944353 -1.321924 18 4 1.6812926e+09
-6.7058725 -12.64473 -1.2466676 24 5 1.6812926e+09
-5.0782914 -6.4353371 -1.5837275 17 2 1.6812926e+09
-3.8976588 -7.3546538 -1.3143229 17 3 1.6812926e+09
-3.7555952 -4.7531066 -1.6126854 8 0 1.6812926e+09
-3.0682738 -5.802146 -1.5048932 30 1 1.6812926e+09
-11.529128 -14.559377 4.2726612 39 14 1.6812926e+09
-6.666657 -12.613035 3.808084 33 15 1.6812926e+09
-11.53437 -14.565974 2.930584 66 12 1.6812926e+09
-6.6940618 -12.601064 2.7642462 37 13 1.6812926e+09
-11.544211 -14.573164 1.6234937 51 10 1.6812926e+09
-6.725307 -12.617424 1.7487731 38 11 1.6812926e+09
-11.52946 -14.544104 0.32334945 32 8 1.6812926e+09
-6.7442546 -12.621161 0.74814248 39 9 1.6812926e+09
-11.601091 -14.623961 -0.97970998 17 6 1.6812926e+09
-6.747437 -12.61653 -0.24913308 32 7 1.6812926e+09
-6.7000585 -8.4379759 -1.3167518 17 4 1.6812926e+09
-6.7687511 -12.656389 -1.2501469 26 5 1.6812926e+09
-5.102252 -6.4194927 -1.5842037 21 2 1.6812926e+09
-3.9000554 -7.2974372 -1.3064927 19 3 1.6812926e+09
-3.7676513 -4.7343016 -1.6107457 8 0 1.6812926e+09
-3.1033912 -5.8193555 -1.5121931 31 1 1.6812926e+09
-11.65177 -14.614394 4.3001761 31 14 1.6812926e+09
-6.7300096 -12.63136 3.8203619 32 15 1.6812926e+09
-11.65343 -14.616456 2.9485343 31 12 1.6812926e+09
-6.7612834 -12.626399 2.7747312 37 13 1.6812926e+09
-11.6587 -14.612589 1.6324271 38 10 1.6812926e+09
-6.8010111 -12.652896 1.7569876 37 11 1.6812926e+09
-11.647802 -14.593698 0.32531282 41 8 1.6812926e+09
-6.8144679 -12.651487 0.75128263 38 9 1.6812926e+09
-11.707178 -14.657581 -0.98456717 1 6 1.6812926e+09
-6.8234529 -12.652313 -0.25031114 30 7 1.6812926e+09
-6.7620988 -8.4583454 -1.3234452 17 4 1.6812926e+09
-6.8425751 -12.693075 -1.2560182 24 5 1.6812926e+09
-5.1077533 -6.3805718 -1.5789659 25 2 1.6812926e+09
-3.9723134 -7.3707485 -1.3221533 24 3 1.6812926e+09
-3.7841539 -4.7211208 -1.6107457 8 0 1.6812926e+09
-3.133039 -5.828351 -1.5172467 32 1 1.6812926e+09
-11.783564 -14.674299 4.329937 43 14 1.6812926e+09
-6.8151841 -12.684392 3.8436253 41 15 1.6812926e+09
-11.784788 -14.675805 2.9688261 46 12 1.6812926e+09
-6.8519311 -12.689115 2.7937949 52 13 1.6812926e+09
-11.76481 -14.645683 1.640489 31 10 1.6812926e+09
-6.8805876 -12.694537 1.7661147 62 11 1.6812926e+09
-11.769155 -14.640614 0.32727626 37 8 1.6812926e+09
-6.8978872 -12.700033 0.75560033 64 9 1.6812926e+09
-11.830263 -14.706101 -0.99060589 30 6 1.6812926e+09
-6.9093485 -12.705288 -0.25183821 44 7 1.6812926e+09
-6.8009214 -8.4462843 -1.3252705 19 4 1.6812926e+09
-6.9152122 -12.716053 -1.2608021 24 5 1.6812926e+09
-5.1284537 -6.3607931 -1.5784895 29 2 1.6812926e+09
-4.0616183 -7.4740248 -1.3432952 17 3 1.6812926e+09
-3.797576 -4.7041254 -1.6094524 8 0 1.6812926e+09
-3.1659782 -5.8382521 -1.522862 33 1 1.6812926e+09
-11.905191 -14.720201 4.3557673 32 14 1.6812926e+09
-6.8732171 -12.686011 3.8513796 38 15 1.6812926e+09
-11.905829 -14.720971 2.9863861 37 12 1.6812926e+09
-6.9090843 -12.688832 2.7990375 31 13 1.6812926e+09
-11.904592 -14.70893 1.6524729 37 10 1.6812926e+09
-6.9403205 -12.698753 1.7700698 31 11 1.6812926e+09
-11.899833 -14.692552 0.32941416 66 8 1.6812926e+09
-6.9647703 -12.711893 0.7578246 33 9 1.6812926e+09
-11.96269 -14.759611 -0.99716961 29 6 1.6812926e+09
-6.9632654 -12.698629 -0.25218725 34 7 1.6812926e+09
-6.83496 -8.4251547 -1.325879 18 4 1.6812926e+09
-6.9966564 -12.759545 -1.2675432 22 5 1.6812926e+09
-5.156816 -6.350472 -1.5803943 30 2 1.6812926e+09
-4.0817566 -7.4489717 -1.3413377 16 3 1.6812926e+09
-3.8154969 -4.6927142 -1.6100991 8 0 1.6812926e+09
-3.1898401 -5.83358 -1.5245466 27 1 1.6812926e+09
-12.052945 -14.79166 4.3900204 60 14 1.6812926e+09
-6.9474483 -12.711604 3.8668885 38 15 1.6812926e+09
-12.036146 -14.77103 3.005507 39 12 1.6812926e+09
-6.9815221 -12.710754 2.8095224 37 13 1.6812926e+09
-12.018813 -14.744496 1.6611885 32 10 1.6812926e+09
-7.0155525 -12.725393 1.7773716 34 11 1.6812926e+09
-12.015833 -14.73033 0.33120301 34 8 1.6812926e+09
-7.0368519 -12.737774 0.76083392 34 9 1.6812926e+09
-12.072557 -14.789315 -1.0020269 29 6 1.6812926e+09
-7.0438132 -12.739882 -0.2534962 34 7 1.6812926e+09
-6.8706093 -8.4089317 -1.327096 19 4 1.6812926e+09
-7.0700588 -12.787364 -1.2727622 19 5 1.6812926e+09
-5.187829 -6.3410244 -1.5827751 31 2 1.6812926e+09
-4.0684586 -7.3604646 -1.3280261 17 3 1.6812926e+09
-3.8242018 -4.6700273 -1.606866 8 0 1.6812926e+09
-3.2360275 -5.8693614 -1.5369002 29 1 1.6812926e+09
-12.161692 -14.819167 4.4107966 27 14 1.6812926e+09
-7.0150762 -12.729585 3.8798125 19 15 1.6812926e+09
-12.162835 -14.820542 3.0242379 35 12 1.6812926e+09
nan nan nan 0 13 1.6812926e+09
-12.157133 -14.808315 1.6731725 39 10 1.6812926e+09
nan nan nan 0 11 1.6812926e+09
-12.16398 -14.806106 0.33386451 46 8 1.6812926e+09
nan nan nan 0 9 1.6812926e+09
-12.209734 -14.851214 -1.0091157 29 6 1.6812926e+09
-7.2536731 -13.012197 -0.25943002 1 7 1.6812926e+09
-6.892035 -8.3753166 -1.3255749 17 4 1.6812926e+09
-7.1461635 -12.819174 -1.2784159 23 5 1.6812926e+09
-5.2099319 -6.3228769 -1.5827751 31 2 1.6812926e+09
-4.1037335 -7.3634787 -1.3311583 17 3 1.6812926e+09
-3.8466284 -4.6641006 -1.6094524 8 0 1.6812926e+09
-3.2671351 -5.8772006 -1.5419539 29 1 1.6812926e+09
-12.315792 -14.900549 4.4478579 57 14 1.6812926e+09
nan nan nan 0 15 1.6812926e+09
-12.279002 -14.856028 3.0402369 32 12 1.6812926e+09
nan nan nan 0 13 1.6812926e+09
-12.28652 -14.85983 1.683849 32 10 1.6812926e+09
nan nan nan 0 11 1.6812926e+09
-12.285711 -14.848286 0.33578429 30 8 1.6812926e+09
nan nan nan 0 9 1.6812926e+09
-12.341117 -14.904644 -1.0156795 30 6 1.6812926e+09
-7.3014975 -12.991158 -0.25951728 1 7 1.6812926e+09
-6.9085584 -8.3359261 -1.3231409 18 4 1.6812926e+09
-7.2274547 -12.859298 -1.2849396 21 5 1.6812926e+09
-5.2418418 -6.3187852 -1.5861082 24 2 1.6812926e+09
-4.1631608 -7.4122806 -1.3425122 17 3 1.6812926e+09
-3.8551679 -4.6413589 -1.6062193 8 0 1.6812926e+09
-3.3054745 -5.8976493 -1.5503769 29 1 1.6812926e+09
-12.415004 -14.919544 4.4658265 31 14 1.6812926e+09
nan nan nan 0 15 1.6812926e+09
-12.405602 -14.90823 3.0593581 30 12 1.6812926e+09
nan nan nan 0 13 1.6812926e+09
-12.427571 -14.924018 1.6960508 44 10 1.6812926e+09
nan nan nan 0 11 1.6812926e+09
-12.432485 -14.92461 0.33844578 84 8 1.6812926e+09
nan nan nan 0 9 1.6812926e+09
-12.475208 -14.965264 -1.0226371 31 6 1.6812926e+09
-7.39114 -13.043896 -0.26108798 3 7 1.6812926e+09
-6.9902248 -8.3777418 -1.333485 18 4 1.6812926e+09
-7.3031807 -12.893779 -1.2908109 19 5 1.6812926e+09
-5.2607188 -6.2966838 -1.5851561 18 2 1.6812926e+09
-4.1805 -7.3826575 -1.3397715 15 3 1.6812926e+09
-3.8713458 -4.6278739 -1.6062193 8 0 1.6812926e+09
-3.3429632 -5.9184852 -1.5587999 29 1 1.6812926e+09
-12.574987 -15.00494 4.5045724 55 14 1.6812926e+09
nan nan nan 0 15 1.6812926e+09
-12.560675 -14.987844 3.0847223 31 12 1.6812926e+09
nan nan nan 0 13 1.6812926e+09
-12.5346 -14.951427 1.7038947 34 10 1.6812926e+09
nan nan nan 0 11 1.6812926e+09
-12.54074 -14.948139 0.33997285 31 8 1.6812926e+09
-7.4380989 -13.036435 0.78477764 1 9 1.6812926e+09
-12.606037 -15.015311 -1.0290697 29 6 1.6812926e+09
-7.4690418 -13.080103 -0.26230964 4 7 1.6812926e+09
-7.0210233 -8.3551903 -1.3337893 19 4 1.6812926e+09
-7.3728304 -12.91147 -1.2951599 19 5 1.6812926e+09
-5.2779241 -6.2726483 -1.5837275 13 2 1.6812926e+09
-4.2111373 -7.3766007 -1.3413377 18 3 1.6812926e+09
-3.8928952 -4.6223969 -1.6088058 9 0 1.6812926e+09
-3.3816631 -5.9385467 -1.5672227 29 1 1.6812926e+09
-12.693289 -15.039139 4.5281563 37 14 1.6812926e+09
nan nan nan 0 15 1.6812926e+09
-12.681409 -15.025046 3.1015019 37 12 1.6812926e+09
-7.4887118 -13.093205 2.9224753 1 13 1.6812926e+09
-12.68473 -15.02365 1.717186 44 10 1.6812926e+09
-7.5208249 -13.101643 1.8479553 1 11 1.6812926e+09
-12.704166 -15.036008 0.34298339 90 8 1.6812926e+09
-7.5333247 -13.096972 0.79001123 2 9 1.6812926e+09
-12.74865 -15.07797 -1.0364211 27 6 1.6812926e+09
-7.5395823 -13.097285 -0.26318228 6 7 1.6812926e+09
-7.0725918 -8.3571463 -1.3380487 18 4 1.6812926e+09
-7.4464188 -12.935308 -1.3001615 19 5 1.6812926e+09
-5.291853 -6.2448273 -1.5813466 11 2 1.6812926e+09
-4.2405524 -7.3682785 -1.3425122 17 3 1.6812926e+09
-3.9058819 -4.6050973 -1.6075125 8 0 1.6812926e+09
-3.4108517 -5.9415007 -1.5711534 27 1 1.6812926e+09
-12.852489 -15.114993 4.565217 54 14 1.6812926e+09
-7.5437984 -13.141498 4.0452409 1 15 1.6812926e+09
-12.817983 -15.074401 3.1214035 33 12 1.6812926e+09
-27.283382 -47.323223 10.60136 1 13 1.6812926e+09
-12.82524 -15.077592 1.7287341 34 10 1.6812926e+09
-7.6236534 -13.174122 1.8619504 2 11 1.6812926e+09
-12.815905 -15.055959 0.3445105 31 8 1.6812926e+09
-7.6288552 -13.15135 0.79498315 2 9 1.6812926e+09
-12.889639 -15.131861 -1.0433786 29 6 1.6812926e+09
-7.6176395 -13.121453 -0.26422942 6 7 1.6812926e+09
-7.1112256 -8.3406076 -1.3395698 18 4 1.6812926e+09
-7.5162745 -12.946706 -1.3040756 17 5 1.6812926e+09
-5.3183994 -6.2319164 -1.5827751 13 2 1.6812926e+09
-4.2699604 -7.3598409 -1.3436868 17 3 1.6812926e+09
-3.9243033 -4.5925856 -1.6081591 8 0 1.6812926e+09
-3.4508929 -5.9605966 -1.5795763 19 1 1.6812926e+09
-12.972255 -15.153713 4.5899243 33 14 1.6812926e+09
-7.6260109 -13.183317 4.0659194 1 15 1.6812926e+09
-12.967474 -15.148109 3.1455975 35 12 1.6812926e+09
-27.383459 -47.134865 10.579437 14 13 1.6812926e+09
-12.971778 -15.142425 1.7413718 43 10 1.6812926e+09
-7.7358274 -13.26105 1.8780751 3 11 1.6812926e+09
-12.981256 -15.148127 0.3476083 87 8 1.6812926e+09
-7.7051654 -13.18203 0.79838502 3 9 1.6812926e+09
-13.027515 -15.191363 -1.0504675 27 6 1.6812926e+09
-7.6810622 -13.12499 -0.26484025 6 7 1.6812926e+09
-7.1533933 -8.3339233 -1.342308 19 4 1.6812926e+09
-7.6006441 -12.992662 -1.3112516 18 5 1.6812926e+09
-5.3305206 -6.2021489 -1.5799183 11 2 1.6812926e+09
-4.3018517 -7.3555508 -1.3456444 16 3 1.6812926e+09
-3.9340076 -4.5715399 -1.6055727 8 0 1.6812926e+09
-3.4779966 -5.96175 -1.5829455 18 1 1.6812926e+09
-13.141205 -15.243021 4.6309156 60 14 1.6812926e+09
-7.753449 -13.296421 4.1092153 3 15 1.6812926e+09
-13.113799 -15.211219 3.1682303 35 12 1.6812926e+09
-7.8275361 -13.359271 3.00016 7 13 1.6812926e+09
-13.096747 -15.186073 1.7513946 31 10 1.6812926e+09
-7.8222995 -13.302426 1.8878108 6 11 1.6812926e+09
-13.086319 -15.163272 0.34900448 30 8 1.6812926e+09
-7.7941999 -13.228197 0.8028335 6 9 1.6812926e+09
-13.170222 -15.249709 -1.0576878 27 6 1.6812926e+09
-7.7727675 -13.181282 -0.26649824 6 7 1.6812926e+09
-7.1727023 -8.2976408 -1.3404826 19 4 1.6812926e+09
-7.6522727 -12.976781 -1.3123389 18 5 1.6812926e+09
-5.352138 -6.1835041 -1.5799183 11 2 1.6812926e+09
-4.3275008 -7.3404894 -1.3456444 16 3 1.6812926e+09
-3.949146 -4.5584693 -1.6055727 8 0 1.6812926e+09
-3.5098872 -5.9684801 -1.5879992 25 1 1.6812926e+09
-13.247042 -15.257756 4.649446 33 14 1.6812926e+09
-7.8071537 -13.281769 4.1130924 10 15 1.6812926e+09
-13.242913 -15.252981 3.1865709 38 12 1.6812926e+09
-7.8366985 -13.268462 2.9858623 9 13 1.6812926e+09
-13.257473 -15.264357 1.7657754 46 10 1.6812926e+09
-7.8522453 -13.247286 1.8838557 9 11 1.6812926e+09
-13.263802 -15.260873 0.35232043 80 8 1.6812926e+09
-7.8772802 -13.263171 0.80662787 9 9 1.6812926e+09
-13.302022 -15.294056 -1.0639889 26 6 1.6812926e+09
-7.8442612 -13.197051 -0.26737085 8 7 1.6812926e+09
-7.1804385 -8.2482271 -1.3365275 22 4 1.6812926e+09
-7.6949792 -12.945707 -1.3119041 14 5 1.6812926e+09
-5.3656249 -6.1555362 -1.5775374 10 2 1.6812926e+09
-4.3367147 -7.2977362 -1.3405546 18 3 1.6812926e+09
-3.9634457 -4.5428367 -1.604926 7 0 1.6812926e+09
-3.5344226 -5.962482 -1.5896838 29 1 1.6812926e+09
-13.4221 -15.350792 4.692122 49 14 1.6812926e+09
-7.8546996 -13.256515 4.113739 16 15 1.6812926e+09
-13.401736 -15.327487 3.2119355 39 12 1.6812926e+09
-7.8980241 -13.266336 2.9915814 27 13 1.6812926e+09
-13.376266 -15.292965 1.7744908 33 10 1.6812926e+09
-7.9098878 -13.23897 1.8865938 30 11 1.6812926e+09
-13.364738 -15.269021 0.35358575 31 8 1.6812926e+09
-7.9337835 -13.252733 0.80767465 32 9 1.6812926e+09
-13.455679 -15.36208 -1.0719967 26 6 1.6812926e+09
-7.9388165 -13.245409 -0.26894158 26 7 1.6812926e+09
-7.2435441 -8.262289 -1.3429165 19 4 1.6812926e+09
-7.7615728 -12.949466 -1.3151659 10 5 1.6812926e+09
-5.3870792 -6.1367688 -1.5775374 10 2 1.6812926e+09
-4.3532887 -7.2677212 -1.337814 17 3 1.6812926e+09
-3.984854 -4.53372 -1.606866 8 0 1.6812926e+09
-3.5899615 -6.0059676 -1.604845 23 1 1.6812926e+09
-13.478824 -15.307503 4.6932454 1 14 1.6812926e+09
-7.892262 -13.214499 4.1092153 54 15 1.6812926e+09
-13.531864 -15.367711 3.2302761 19 12 1.6812926e+09
-7.9089437 -13.179753 2.9782367 57 13 1.6812926e+09
-13.535966 -15.361547 1.788218 37 10 1.6812926e+09
-7.9355812 -13.177262 1.881726 50 11 1.6812926e+09
-13.546267 -15.362412 0.35690168 48 8 1.6812926e+09
-7.974566 -13.210739 0.80688959 62 9 1.6812926e+09
-13.587884 -15.398762 -1.0780354 27 6 1.6812926e+09
-7.9604578 -13.176959 -0.26811257 55 7 1.6812926e+09
-7.2524209 -8.2115107 -1.3389614 18 4 1.6812926e+09
-6.9649091 -11.527898 -1.1729505 11 5 1.6812926e+09
-5.4035892 -6.112411 -1.5761088 10 2 1.6812926e+09
-4.3697057 -7.237679 -1.3350734 22 3 1.6812926e+09
-3.997453 -4.5161667 -1.6055727 8 0 1.6812926e+09
-3.6222072 -6.0121875 -1.6098988 25 1 1.6812926e+09
nan nan nan 0 14 1.6812926e+09
-7.9244537 -13.158585 4.1008148 58 15 1.6812926e+09
-13.783119 -15.537824 3.2767129 19 12 1.6812926e+09
-7.9584665 -13.152779 2.9787135 64 13 1.6812926e+09
nan nan nan 0 10 1.6812926e+09
-7.9866781 -13.157968 1.882943 73 11 1.6812926e+09
-19.097363 -21.5049 0.50140762 17 8 1.6812926e+09
-8.0063648 -13.159356 0.80545032 68 9 1.6812926e+09
-13.760965 -15.485593 -1.0874872 25 6 1.6812926e+09
-8.0180998 -13.168309 -0.26850525 48 7 1.6812926e+09
-7.310729 -8.2195139 -1.3444377 18 4 1.6812926e+09
-7.0076962 -11.50777 -1.1733854 11 5 1.6812926e+09
-5.4232607 -6.0916796 -1.5756327 10 2 1.6812926e+09
-4.3975081 -7.2266026 -1.3358564 23 3 1.6812926e+09
-4.0083704 -4.496779 -1.6036328 8 0 1.6812926e+09
-3.6456974 -6.0036731 -1.6110218 22 1 1.6812926e+09
-14.32536 -16.041548 4.9493017 1 14 1.6812926e+09
-7.9755583 -13.144623 4.104692 55 15 1.6812926e+09
-13.956294 -15.628316 3.3055894 1 12 1.6812926e+09
-8.0071459 -13.134698 2.9806197 33 13 1.6812926e+09
nan nan nan 0 10 1.6812926e+09
-8.0493851 -13.157532 1.8868982 34 11 1.6812926e+09
-19.230215 -21.510401 0.50302196 24 8 1.6812926e+09
-8.0669117 -13.16041 0.80715126 31 9 1.6812926e+09
-13.895476 -15.532904 -1.094051 25 6 1.6812926e+09
-8.0744715 -13.157288 -0.26885432 44 7 1.6812926e+09
-7.3213906 -8.1767416 -1.3413954 18 4 1.6812926e+09
-7.9218407 -12.913446 -1.3197324 1 5 1.6812926e+09
-5.4395747 -6.0672302 -1.5742041 10 2 1.6812926e+09
-4.4330254 -7.2280531 -1.3389887 17 3 1.6812926e+09
-4.0272703 -4.4863529 -1.604926 8 0 1.6812926e+09
-3.6706657 -5.9998665 -1.6132679 17 1 1.6812926e+09
-14.298182 -15.899072 4.9206638 6 14 1.6812926e+09
-8.0616922 -13.182646 4.1253705 42 15 1.6812926e+09
-14.233696 -15.827359 3.3582697 2 12 1.6812926e+09
-8.0914707 -13.169411 2.9949176 35 13 1.6812926e+09
-14.316445 -15.913763 1.8697085 1 10 1.6812926e+09
-8.1343155 -13.19273 1.8960253 38 11 1.6812926e+09
-13.687015 -15.203531 0.35646537 1 8 1.6812926e+09
-8.1547689 -13.20015 0.81133813 30 9 1.6812926e+09
-14.063251 -15.610425 -1.1029778 24 6 1.6812926e+09
-8.162405 -13.197062 -0.2702505 41 7 1.6812926e+09
-7.3116622 -8.1087561 -1.3343978 16 4 1.6812926e+09
-7.9586415 -12.867376 -1.3179927 1 5 1.6812926e+09
-5.4574304 -6.0445633 -1.573252 10 2 1.6812926e+09
-4.4789824 -7.2461505 -1.3452529 18 3 1.6812926e+09
-4.0412865 -4.4704766 -1.6042794 8 0 1.6812926e+09
-3.6798563 -5.9656301 -1.6076527 15 1 1.6812926e+09
-14.32579 -15.818371 4.911118 46 14 1.6812926e+09
-8.1431208 -13.212001 4.1434641 38 15 1.6812926e+09
-14.360141 -15.856276 3.3750494 40 12 1.6812926e+09
-8.1877565 -13.222474 3.0135047 40 13 1.6812926e+09
-14.381368 -15.868564 1.8705801 9 10 1.6812926e+09
-8.2287531 -13.242253 1.9072822 46 11 1.6812926e+09
nan nan nan 0 8 1.6812926e+09
-8.2505894 -13.246475 0.81604838 38 9 1.6812926e+09
-14.216014 -15.664144 -1.1104605 25 6 1.6812926e+09
-8.2559996 -13.244869 -0.27182123 42 7 1.6812926e+09
-7.3980699 -8.1443434 -1.3447421 19 4 1.6812926e+09
-8.0100927 -12.850086 -1.3190801 15 5 1.6812926e+09
-5.4718909 -6.0182147 -1.5713472 11 2 1.6812926e+09
-4.5355549 -7.280787 -1.3546492 18 3 1.6812926e+09
-4.0584922 -4.4581285 -1.604926 8 0 1.6812926e+09
-3.7045124 -5.9589577 -1.6093372 15 1 1.6812926e+09
-14.37546 -15.756758 4.9083099 58 14 1.6812926e+09
-8.2322607 -13.247718 4.1641426 58 15 1.6812926e+09
-14.393193 -15.776174 3.3691959 62 12 1.6812926e+09
-8.2686396 -13.244429 3.0254197 65 13 1.6812926e+09
-14.414844 -15.794355 1.8677477 73 10 1.6812926e+09
-8.2986221 -13.251311 1.9127586 42 11 1.6812926e+09
nan nan nan 0 8 1.6812926e+09
-8.328618 -13.268352 0.81918848 44 9 1.6812926e+09
-14.376724 -15.730518 -1.1187309 22 6 1.6812926e+09
-8.3447123 -13.283715 -0.27321741 63 7 1.6812926e+09
-7.4532571 -8.1477604 -1.3496099 19 4 1.6812926e+09
-8.0548992 -12.822048 -1.3190801 15 5 1.6812926e+09
-5.4912076 -5.9972672 -1.570871 19 2 1.6812926e+09
-4.5622544 -7.2670031 -1.3550408 17 3 1.6812926e+09
-4.0707645 -4.4403749 -1.6036328 9 0 1.6812926e+09
-3.7188299 -5.9356637 -1.6065296 15 1 1.6812926e+09
-14.500146 -15.787942 4.9330173 48 14 1.6812926e+09
-8.3145714 -13.28177 4.1835289 35 15 1.6812926e+09
-14.503898 -15.792007 3.3828537 48 12 1.6812926e+09
-8.3451624 -13.268882 3.0373344 31 13 1.6812926e+09
-14.480001 -15.754943 1.8690549 41 10 1.6812926e+09
-8.3885107 -13.291524 1.9227984 34 11 1.6812926e+09
-14.241385 -15.489923 0.36667505 2 8 1.6812926e+09
-8.4139166 -13.306086 0.82324457 29 9 1.6812926e+09
-14.533621 -15.796657 -1.1268699 22 6 1.6812926e+09
-8.4177589 -13.296752 -0.27409002 31 7 1.6812926e+09
-7.5441198 -8.1923532 -1.3611709 23 4 1.6812926e+09
-8.0893869 -12.782637 -1.3177752 15 5 1.6812926e+09
-5.5054526 -5.9708476 -1.5689664 31 2 1.6812926e+09
-4.4807515 -7.0819612 -1.3233279 19 3 1.6812926e+09
-4.0846014 -4.4243646 -1.6029861 10 0 1.6812926e+09
-3.7371938 -5.9212384 -1.605968 11 1 1.6812926e+09
-14.654422 -15.844528 4.9667091 37 14 1.6812926e+09
-8.4020996 -13.318039 4.2042074 35 15 1.6812926e+09
-14.636067 -15.82467 3.4008043 37 12 1.6812926e+09
-8.4439564 -13.3226 3.0563982 32 13 1.6812926e+09
-14.631966 -15.814687 1.8819103 41 10 1.6812926e+09
-8.4801121 -13.333364 1.9331425 32 11 1.6812926e+09
-14.461805 -15.619852 0.37095088 2 8 1.6812926e+09
-8.5005426 -13.339809 0.82716972 34 9 1.6812926e+09
-14.685395 -15.850207 -1.1343527 19 6 1.6812926e+09
-8.5151854 -13.34738 -0.27574798 30 7 1.6812926e+09
-7.5676084 -8.1605129 -1.3602582 22 4 1.6812926e+09
-8.0772724 -12.660501 -1.3082073 14 5 1.6812926e+09
-5.5262613 -5.9515939 -1.5689664 26 2 1.6812926e+09
-4.5704341 -7.1683297 -1.3425122 18 3 1.6812926e+09
-4.1033096 -4.4136157 -1.6042794 9 0 1.6812926e+09
-3.7575655 -5.9054451 -1.6054066 18 1 1.6812926e+09
-14.822556 -15.914491 5.0048928 38 14 1.6812926e+09
-8.493865 -13.359972 4.2268243 72 15 1.6812926e+09
-14.835968 -15.928871 3.4343634 62 12 1.6812926e+09
-8.5287008 -13.353037 3.0702195 47 13 1.6812926e+09
-14.827385 -15.908513 1.8995595 62 10 1.6812926e+09
-8.5680923 -13.368459 1.942574 43 11 1.6812926e+09
-14.592275 -15.645338 0.37282699 7 8 1.6812926e+09
-8.5965853 -13.382094 0.83174914 46 9 1.6812926e+09
-14.852421 -15.913073 -1.1427543 18 6 1.6812926e+09
-8.6049604 -13.384871 -0.27714419 71 7 1.6812926e+09
-7.6093268 -8.1454115 -1.3623879 21 4 1.6812926e+09
nan nan nan 0 5 1.6812926e+09
-5.5486789 -5.9340591 -1.5694425 16 2 1.6812926e+09
-4.5914268 -7.1460972 -1.3413377 18 3 1.6812926e+09
-4.1071343 -4.3869286 -1.599753 8 0 1.6812926e+09
-3.7729013 -5.8840857 -1.6031604 23 1 1.6812926e+09
-15.015813 -16.003948 5.0503764 41 14 1.6812926e+09
-8.5792456 -13.385692 4.2449179 30 15 1.6812926e+09
-14.96691 -15.951818 3.451143 31 12 1.6812926e+09
-8.6280489 -13.400111 3.08833 29 13 1.6812926e+09
-14.949303 -15.927472 1.9080571 35 10 1.6812926e+09
-8.6627979 -13.407842 1.9529182 32 11 1.6812926e+09
-14.937741 -15.90402 0.38024428 34 8 1.6812926e+09
-8.687995 -13.421179 0.83606684 30 9 1.6812926e+09
-15.001925 -15.961177 -1.1499745 22 6 1.6812926e+09
-8.6896667 -13.413503 -0.27836588 38 7 1.6812926e+09
-7.5730929 -8.0501308 -1.3508267 17 4 1.6812926e+09
nan nan nan 0 5 1.6812926e+09
-5.5653419 -5.9083242 -1.568014 17 2 1.6812926e+09
-4.6524591 -7.1831231 -1.3515172 21 3 1.6812926e+09
-4.1240792 -4.3743219 -1.6003996 9 0 1.6812926e+09
-3.8000214 -5.8811154 -1.605968 27 1 1.6812926e+09
-15.150228 -16.034655 5.0767684 31 14 1.6812926e+09
-8.6678295 -13.420596 4.2655969 30 15 1.6812926e+09
-15.146314 -16.030495 3.4796295 34 12 1.6812926e+09
-8.7148275 -13.431687 3.102628 37 13 1.6812926e+09
-15.158786 -16.038078 1.9276673 59 10 1.6812926e+09
-8.7501459 -13.439919 1.9620454 33 11 1.6812926e+09
-15.180404 -16.049711 0.38500005 96 8 1.6812926e+09
-8.781146 -13.461879 0.84051543 35 9 1.6812926e+09
-15.17769 -16.035627 -1.1591637 21 6 1.6812926e+09
-8.7869701 -13.460548 -0.27998021 33 7 1.6812926e+09
-7.587492 -8.0092382 -1.3483928 18 4 1.6812926e+09
-8.2679224 -12.664917 -1.3175579 15 5 1.6812926e+09
-5.5842419 -5.8870811 -1.5675378 16 2 1.6812926e+09
-4.68155 -7.1730447 -1.3526917 19 3 1.6812926e+09
-4.1426501 -4.3634014 -1.6016928 8 0 1.6812926e+09
-3.8138878 -5.8576026 -1.6031604 29 1 1.6812926e+09
-15.342136 -16.12462 5.122252 41 14 1.6812926e+09
-8.7607088 -13.461115 4.2882142 49 15 1.6812926e+09
-15.333253 -16.115267 3.5096765 48 12 1.6812926e+09
-8.8073006 -13.471038 3.1188319 48 13 1.6812926e+09
-15.295383 -16.069845 1.9379078 29 10 1.6812926e+09
-8.8422718 -13.483468 1.9726938 44 11 1.6812926e+09
-15.288057 -16.050919 0.386309 30 8 1.6812926e+09
-8.8692036 -13.493746 0.84444064 46 9 1.6812926e+09
-15.340374 -16.094585 -1.1673028 16 6 1.6812926e+09
-8.8778419 -13.496634 -0.28137639 72 7 1.6812926e+09
-7.6839275 -8.0545101 -1.3605624 17 4 1.6812926e+09
-8.3134489 -12.638061 -1.3177752 18 5 1.6812926e+09
-5.6020384 -5.8667564 -1.5670617 14 2 1.6812926e+09
-4.7405472 -7.2111435 -1.3628711 21 3 1.6812926e+09
-4.1545177 -4.3454242 -1.6003996 8 0 1.6812926e+09
-3.8383167 -5.8503675 -1.604845 31 1 1.6812926e+09
-15.510119 -16.193279 5.1604362 30 14 1.6812926e+09
-8.8555899 -13.508756 4.3127699 30 15 1.6812926e+09
-15.483978 -16.165972 3.5319192 29 12 1.6812926e+09
-8.8991451 -13.513508 3.1355131 29 13 1.6812926e+09
-15.482368 -16.152992 1.9544675 34 10 1.6812926e+09
-8.931675 -13.516712 1.9821254 31 11 1.6812926e+09
-15.470959 -16.135443 0.38958132 47 8 1.6812926e+09
-8.9634962 -13.539216 0.8491509 30 9 1.6812926e+09
-15.507748 -16.16251 -1.175967 1 6 1.6812926e+09
-8.9663095 -13.52808 -0.28268534 29 7 1.6812926e+09
-7.6934042 -8.0110912 -1.35752 21 4 1.6812926e+09
-8.3456879 -12.595886 -1.3162531 21 5 1.6812926e+09
-5.6241841 -5.8489342 -1.5675378 10 2 1.6812926e+09
-4.7466154 -7.1657233 -1.3573898 17 3 1.6812926e+09
-4.1713357 -4.3326349 -1.6010463 9 0 1.6812926e+09
-3.8576958 -5.8376064 -1.604845 32 1 1.6812926e+09
-15.686636 -16.263523 5.2003045 30 14 1.6812926e+09
-8.9452648 -13.542254 4.3334484 29 15 1.6812926e+09
-15.667181 -16.24334 3.560796 33 12 1.6812926e+09
-8.9923763 -13.551902 3.1517169 34 13 1.6812926e+09
-15.691496 -16.262852 1.9740776 82 10 1.6812926e+09
-9.0227919 -13.551558 1.9918611 33 11 1.6812926e+09
-15.69388 -16.253956 0.39376992 100 8 1.6812926e+09
-9.0550165 -13.574317 0.85333776 38 9 1.6812926e+09
-15.60571 -16.151367 -1.1791177 15 6 1.6812926e+09
-9.0620432 -13.569468 -0.28421241 27 7 1.6812926e+09
-7.6695633 -7.9306831 -1.3483928 24 4 1.6812926e+09
-8.3904142 -12.563142 -1.3160357 19 5 1.6812926e+09
-5.6462746 -5.8310299 -1.568014 10 2 1.6812926e+09
-4.7620125 -7.1347284 -1.3546492 17 3 1.6812926e+09
-4.1830716 -4.3145814 -1.599753 9 0 1.6812926e+09
-3.8763676 -5.8193712 -1.603722 33 1 1.6812926e+09
-15.862133 -16.330984 5.2396111 42 14 1.6812926e+09
-9.0406332 -13.583339 4.3567119 47 15 1.6812926e+09
-15.854552 -16.32316 3.5904529 41 12 1.6812926e+09
-9.0859842 -13.58981 3.1679213 44 13 1.6812926e+09
-15.851684 -16.308805 1.9867152 30 10 1.6812926e+09
-9.1197872 -13.594179 2.0028138 44 11 1.6812926e+09
-15.824808 -16.269785 0.39555874 38 8 1.6812926e+09
-9.1506577 -13.609418 0.85765541 44 9 1.6812926e+09
-13.898977 -14.280125 -1.0460042 7 6 1.6812926e+09
-9.1595707 -13.612424 -0.28578314 44 7 1.6812926e+09
-7.7713151 -7.9771585 -1.3611709 21 4 1.6812926e+09
-8.4467249 -12.552377 -1.3179927 21 5 1.6812926e+09
-5.6631665 -5.8077712 -1.5670617 10 2 1.6812926e+09
-4.7979026 -7.1344604 -1.3577814 18 3 1.6812926e+09
-4.1981068 -4.2999535 -1.599753 8 0 1.6812926e+09
-3.9007263 -5.8118763 -1.6054066 32 1 1.6812926e+09
-16.044559 -16.398096 5.2800412 29 14 1.6812926e+09
-9.1293602 -13.608284 4.3754516 29 15 1.6812926e+09
-16.029989 -16.38319 3.6165981 30 12 1.6812926e+09
-9.1782303 -13.619517 3.1826956 31 13 1.6812926e+09
-16.025242 -16.372612 2.0013137 35 10 1.6812926e+09
-9.2102423 -13.626004 2.0122452 33 11 1.6812926e+09
-16.031935 -16.36801 0.39931104 50 8 1.6812926e+09
-9.2414989 -13.641481 0.8617115 32 9 1.6812926e+09
-15.953328 -16.276398 -1.1965773 10 6 1.6812926e+09
-9.2490931 -13.642448 -0.28709206 25 7 1.6812926e+09
-7.7991128 -7.9499826 -1.3611709 18 4 1.6812926e+09
-8.4876957 -12.518693 -1.3175579 21 5 1.6812926e+09
-5.6885643 -5.79322 -1.5684901 9 2 1.6812926e+09
-4.8380008 -7.1401625 -1.3620881 19 3 1.6812926e+09
-4.2063165 -4.2783866 -1.5971664 8 0 1.6812926e+09
-3.9237163 -5.8022623 -1.6065296 27 1 1.6812926e+09
-16.223652 -16.471491 5.3210325 29 14 1.6812926e+09
-9.2284966 -13.657992 4.4013 34 15 1.6812926e+09
-16.222866 -16.470676 3.6478159 31 12 1.6812926e+09
-9.2701836 -13.65806 3.1988997 34 13 1.6812926e+09
-16.229158 -16.465555 2.0196164 65 10 1.6812926e+09
-9.3135986 -13.675828 2.0244148 34 11 1.6812926e+09
-16.240578 -16.471378 0.40315059 96 8 1.6812926e+09
-9.3373203 -13.685017 0.86642176 34 9 1.6812926e+09
-15.998446 -16.21452 -1.1959209 1 6 1.6812926e+09
-9.347393 -13.684398 -0.28866276 27 7 1.6812926e+09
-7.8725181 -7.9717398 -1.3693854 17 4 1.6812926e+09
-8.5123167 -12.465791 -1.3149483 19 5 1.6812926e+09
-5.7052994 -5.7698383 -1.5675378 9 2 1.6812926e+09
-4.8865433 -7.1579118 -1.3687439 19 3 1.6812926e+09
-4.2212248 -4.2636776 -1.5971664 8 0 1.6812926e+09
-3.9388254 -5.7831759 -1.604845 18 1 1.6812926e+09
-16.426882 -16.561768 5.3687625 35 14 1.6812926e+09
-9.3182278 -13.687594 4.4213319 46 15 1.6812926e+09
-16.429819 -16.564713 3.6813753 46 12 1.6812926e+09
-9.3676538 -13.69856 3.2160571 42 13 1.6812926e+09
-16.416996 -16.546 2.036176 33 10 1.6812926e+09
-9.4005728 -13.700535 2.0329335 40 11 1.6812926e+09
-16.380753 -16.497948 0.4052012 33 8 1.6812926e+09
-9.4288568 -13.716129 0.87047774 43 9 1.6812926e+09
-10.809062 -10.879624 -0.80458826 9 6 1.6812926e+09
-9.4380388 -13.719238 -0.29005897 37 7 1.6812926e+09
-7.9580483 -8.0022659 -1.3794254 18 4 1.6812926e+09
-8.5402575 -12.413426 -1.3125564 19 5 1.6812926e+09
-5.7288699 -5.753365 -1.5684901 9 2 1.6812926e+09
-4.9142952 -7.1448803 -1.3695269 22 3 1.6812926e+09
-4.2336349 -4.2479463 -1.5965198 8 0 1.6812926e+09
-3.9589887 -5.769392 -1.604845 11 1 1.6812926e+09
-16.620607 -16.640482 5.4131236 32 14 1.6812926e+09
-9.4151077 -13.726696 4.4445953 29 15 1.6812926e+09
-16.600981 -16.620817 3.7067399 25 12 1.6812926e+09
-9.4641275 -13.736524 3.2327383 32 13 1.6812926e+09
-16.5926 -16.606625 2.0507746 29 10 1.6812926e+09
-9.5118103 -13.759505 2.0466242 29 11 1.6812926e+09
-16.579643 -16.582067 0.4086917 37 8 1.6812926e+09
-9.5292521 -13.759088 0.87531888 31 9 1.6812926e+09
-10.751613 -10.746533 -0.79749942 10 6 1.6812926e+09
-9.5371103 -13.760183 -0.29162967 25 7 1.6812926e+09
-7.9262233 -7.9148331 -1.3690813 15 4 1.6812926e+09
-8.4615746 -12.207471 -1.2938553 19 5 1.6812926e+09
-5.7454414 -5.7298675 -1.5675378 8 2 1.6812926e+09
-4.9574747 -7.1540766 -1.3746166 19 3 1.6812926e+09
-4.2467265 -4.2314386 -1.5958734 8 0 1.6812926e+09
-3.970799 -5.7435083 -1.6014758 9 1 1.6812926e+09
-16.814541 -16.711674 5.4563608 25 14 1.6812926e+09
-9.5230103 -13.775546 4.471736 39 15 1.6812926e+09
-16.775639 -16.672998 3.7321045 33 12 1.6812926e+09
-9.5731792 -13.786424 3.2527552 32 13 1.6812926e+09
-16.789404 -16.680845 2.0675521 35 10 1.6812926e+09
-9.6079807 -13.795466 2.0569685 35 11 1.6812926e+09
-16.812384 -16.692007 0.41292393 79 8 1.6812926e+09
-9.6438961 -13.816209 0.88120663 38 9 1.6812926e+09
-14.697299 -14.582187 -1.086831 10 6 1.6812926e+09
-9.6504374 -13.815317 -0.29354945 34 7 1.6812926e+09
-7.9234529 -7.8542886 -1.3636049 15 4 1.6812926e+09
-8.3052435 -11.888438 -1.2631942 19 5 1.6812926e+09
-5.7706404 -5.7149572 -1.5689664 8 2 1.6812926e+09
-4.9753542 -7.1266007 -1.372659 18 3 1.6812926e+09
-4.2673593 -4.2209377 -1.5978131 8 0 1.6812926e+09
-3.9918237 -5.7289162 -1.6014758 9 1 1.6812926e+09
-17.013763 -16.797874 5.5029678 29 14 1.6812926e+09
-9.6100197 -13.803364 4.4911222 57 15 1.6812926e+09
-17.006569 -16.790758 3.771127 41 12 1.6812926e+09
-9.6638327 -13.818972 3.2680061 31 13 1.6812926e+09
-17.037241 -16.809282 2.0908663 70 10 1.6812926e+09
-9.7116413 -13.841078 2.0688338 26 11 1.6812926e+09
-17.011806 -16.778328 0.41645801 54 8 1.6812926e+09
-9.7327137 -13.845437 0.88513184 29 9 1.6812926e+09
-14.829149 -14.615728 -1.0930008 13 6 1.6812926e+09
-9.7446203 -13.846972 -0.29494566 38 7 1.6812926e+09
-7.9529915 -7.8314519 -1.3642133 13 4 1.6812926e+09
nan nan nan 0 5 1.6812926e+09
-5.7905545 -5.6947794 -1.5689664 8 2 1.6812926e+09
-5.0030394 -7.1132307 -1.3734421 16 3 1.6812926e+09
-4.2837901 -4.2077079 -1.5984597 8 0 1.6812926e+09
-4.012197 -5.7176423 -1.6020373 9 1 1.6812926e+09
-17.115788 -16.781017 5.5170059 32 14 1.6812926e+09
-9.7080479 -13.840926 4.5143857 32 15 1.6812926e+09
-17.140903 -16.805622 3.7879066 37 12 1.6812926e+09
-9.7671127 -13.863413 3.2865932 26 13 1.6812926e+09
-17.158701 -16.817188 2.098928 39 10 1.6812926e+09
-9.810008 -13.878028 2.0794821 35 11 1.6812926e+09
-17.166708 -16.813282 0.41881409 33 8 1.6812926e+09
-9.8343477 -13.886776 0.88997287 29 9 1.6812926e+09
-14.248426 -13.945749 -1.0465293 8 6 1.6812926e+09
-9.8478098 -13.890375 -0.29660362 30 7 1.6812926e+09
-7.974957 -7.7984395 -1.3633006 14 4 1.6812926e+09
-8.4960279 -11.982575 -1.2795033 19 5 1.6812926e+09
-5.8121533 -5.6762462 -1.5694425 8 2 1.6812926e+09
-5.0349722 -7.1058016 -1.3753997 16 3 1.6812926e+09
-4.2949929 -4.1893573 -1.5971664 9 0 1.6812926e+09
-4.0303159 -5.6989188 -1.6009144 9 1 1.6812926e+09
-17.359291 -16.901293 5.5765276 25 14 1.6812926e+09
-9.8106356 -13.88389 4.5395875 37 15 1.6812926e+09
-17.210077 -16.756021 3.7902479 19 12 1.6812926e+09
-9.8750811 -13.913306 3.3066101 47 13 1.6812926e+09
-17.220226 -16.754187 2.098928 25 10 1.6812926e+09
-9.9217024 -13.932654 2.0928688 65 11 1.6812926e+09
-17.233595 -16.755478 0.41894498 40 8 1.6812926e+09
-9.9489708 -13.940069 0.89572984 43 9 1.6812926e+09
-14.303027 -13.896913 -1.0467918 11 6 1.6812926e+09
-9.9470663 -13.927122 -0.29813072 33 7 1.6812926e+09
-8.0480051 -7.8123603 -1.3709066 15 4 1.6812926e+09
-8.5247803 -11.934602 -1.2775462 19 5 1.6812926e+09
-5.8284073 -5.6525064 -1.5684901 8 2 1.6812926e+09
-5.0411096 -7.062047 -1.3703099 16 3 1.6812926e+09
-4.3061209 -4.1709809 -1.5958734 9 0 1.6812926e+09
-4.053009 -5.6887856 -1.6020373 9 1 1.6812926e+09
-17.627832 -17.037315 5.6427879 18 14 1.6812926e+09
-9.9048681 -13.908834 4.5596199 31 15 1.6812926e+09
-17.61231 -17.022299 3.865171 24 12 1.6812926e+09
-9.9559822 -13.918943 3.3166187 33 13 1.6812926e+09
-17.60281 -17.00717 2.1383662 33 10 1.6812926e+09
-10.01076 -13.954402 2.1013875 27 11 1.6812926e+09
-17.604895 -16.997295 0.42653677 66 8 1.6812926e+09
-10.041275 -13.96608 0.8996551 27 9 1.6812926e+09
-14.240047 -13.739435 -1.0386527 10 6 1.6812926e+09
-10.056912 -13.97755 -0.29996324 29 7 1.6812926e+09
-8.1109619 -7.8186569 -1.3769914 16 4 1.6812926e+09
-8.5038643 -11.817824 -1.2681956 22 5 1.6812926e+09
-5.848103 -5.6321268 -1.5684901 8 2 1.6812926e+09
-5.0556469 -7.0303698 -1.3675693 17 3 1.6812926e+09
-4.3206544 -4.1559243 -1.5958734 8 0 1.6812926e+09
-4.0714226 -5.6726232 -1.6014758 9 1 1.6812926e+09
-17.852945 -17.140724 5.6966944 23 14 1.6812926e+09
-10.022687 -13.976022 4.5925765 29 15 1.6812926e+09
-17.843239 -17.131388 3.9034131 26 12 1.6812926e+09
-10.083813 -13.999381 3.3437843 37 13 1.6812926e+09
-17.850777 -17.126648 2.1612444 47 10 1.6812926e+09
-10.117528 -13.999835 2.1135571 41 11 1.6812926e+09
-17.863226 -17.132593 0.43142346 72 8 1.6812926e+09
-10.151931 -14.021696 0.90541196 43 9 1.6812926e+09
-14.440546 -13.840689 -1.0499424 23 6 1.6812926e+09
-10.154034 -14.009161 -0.30140305 29 7 1.6812926e+09
-8.1942053 -7.8466272 -1.3867271 16 4 1.6812926e+09
-8.4407558 -11.648358 -1.2529738 23 5 1.6812926e+09
-5.8624053 -5.6065912 -1.5670617 8 2 1.6812926e+09
-5.077261 -7.0086784 -1.3667864 16 3 1.6812926e+09
-4.3316412 -4.1374822 -1.5945801 8 0 1.6812926e+09
-4.0887861 -5.6571155 -1.6009144 9 1 1.6812926e+09
-18.076656 -17.234629 5.7489166 25 14 1.6812926e+09
-10.13927 -14.034934 4.6235938 51 15 1.6812926e+09
-18.094175 -17.251312 3.9451668 39 12 1.6812926e+09
-10.180163 -14.029656 3.3595121 67 13 1.6812926e+09
-18.051708 -17.204807 2.1786757 27 10 1.6812926e+09
-10.218891 -14.036667 2.1245098 67 11 1.6812926e+09
-18.035151 -17.17701 0.43412858 30 8 1.6812926e+09
-10.252285 -14.056787 0.90999138 72 9 1.6812926e+09
nan nan nan 0 6 1.6812926e+09
-10.258865 -14.050359 -0.30306101 38 7 1.6812926e+09
-8.2898865 -7.8829432 -1.3982882 19 4 1.6812926e+09
-8.4980736 -11.63746 -1.2551483 24 5 1.6812926e+09
-5.8783803 -5.5827141 -1.5661094 8 2 1.6812926e+09
-5.044971 -6.9130964 -1.3515172 18 3 1.6812926e+09
-4.351315 -4.1273208 -1.5965198 8 0 1.6812926e+09
-4.1037607 -5.6342106 -1.5986682 9 1 1.6812926e+09
-18.324236 -17.348946 5.8084383 37 14 1.6812926e+09
-10.235078 -14.063909 4.6449189 37 15 1.6812926e+09
-18.285194 -17.311972 3.9736531 21 12 1.6812926e+09
-10.272505 -14.053487 3.3738101 33 13 1.6812926e+09
-18.244913 -17.261757 2.1943638 24 10 1.6812926e+09
-10.310367 -14.05895 2.1333325 31 11 1.6812926e+09
-18.2651 -17.26877 0.43814263 33 8 1.6812926e+09
-10.337731 -14.065392 0.9130007 33 9 1.6812926e+09
-14.430328 -13.634137 -1.0420659 18 6 1.6812926e+09
-10.355223 -14.078911 -0.30445722 33 7 1.6812926e+09
-8.3692551 -7.9001923 -1.4068069 21 4 1.6812926e+09
-8.5253687 -11.589666 -1.2531912 22 5 1.6812926e+09
-5.9014034 -5.5655284 -1.5670617 8 2 1.6812926e+09
-5.0442271 -6.8616099 -1.3448613 18 3 1.6812926e+09
-4.3656955 -4.1121063 -1.5965198 8 0 1.6812926e+09
-4.1190829 -5.613956 -1.5969836 9 1 1.6812926e+09
-18.554575 -17.438484 5.8612218 29 14 1.6812926e+09
-10.27799 -14.014614 4.6410418 41 15 1.6812926e+09
-18.508677 -17.395338 4.0083833 22 12 1.6812926e+09
-10.310851 -13.997955 3.3695207 31 13 1.6812926e+09
-18.481131 -17.363369 2.2154989 24 10 1.6812926e+09
-10.346115 -14.00491 2.1305945 32 11 1.6812926e+09
-18.478354 -17.348612 0.44180763 34 8 1.6812926e+09
-10.377855 -14.01718 0.91221571 31 9 1.6812926e+09
-14.749132 -13.838181 -1.061626 22 6 1.6812926e+09
-10.405792 -14.044688 -0.30450085 40 7 1.6812926e+09
-8.4891243 -7.9574642 -1.4223232 19 4 1.6812926e+09
nan nan nan 0 5 1.6812926e+09
-5.9154196 -5.5398631 -1.5656333 8 2 1.6812926e+09
-5.057869 -6.8300648 -1.3421206 22 3 1.6812926e+09
-4.3817863 -4.0984912 -1.5971664 8 0 1.6812926e+09
-4.1415482 -5.6034636 -1.5981066 9 1 1.6812926e+09
-18.790379 -17.543097 5.9173746 22 14 1.6812926e+09
-10.321539 -13.976566 4.6397491 26 15 1.6812926e+09
-18.734133 -17.490572 4.0446739 23 12 1.6812926e+09
-10.379135 -13.993258 3.3766696 23 13 1.6812926e+09
-18.738308 -17.482224 2.2390308 25 10 1.6812926e+09
-10.420112 -14.002558 2.1357665 21 11 1.6812926e+09
-18.696653 -17.437258 0.44564718 41 8 1.6812926e+09
-10.427263 -13.986693 0.91247737 19 9 1.6812926e+09
-14.48079 -13.496452 -1.0390466 24 6 1.6812926e+09
-10.435326 -13.982232 -0.30393362 27 7 1.6812926e+09
-8.5826674 -7.991827 -1.4335802 16 4 1.6812926e+09
nan nan nan 0 5 1.6812926e+09
-5.9329238 -5.5175095 -1.5651571 8 2 1.6812926e+09
-5.1362648 -6.8856263 -1.3566067 21 3 1.6812926e+09
-4.3907571 -4.0782428 -1.5952266 8 0 1.6812926e+09
-4.1586537 -5.5877442 -1.5975451 9 1 1.6812926e+09
-19.012295 -17.62645 5.9679122 19 14 1.6812926e+09
-10.540294 -14.169147 4.716001 27 15 1.6812926e+09
-18.970736 -17.587908 4.0825257 22 12 1.6812926e+09
-10.602654 -14.190945 3.4333844 32 13 1.6812926e+09
-18.977026 -17.587574 2.2606022 26 10 1.6812926e+09
-10.666806 -14.230225 2.1762307 35 11 1.6812926e+09
-18.977491 -17.575689 0.45088288 70 8 1.6812926e+09
-10.699322 -14.247723 0.93197244 38 9 1.6812926e+09
nan nan nan 0 6 1.6812926e+09
-10.690297 -14.225362 -0.30999833 23 7 1.6812926e+09
-8.6888647 -8.0342484 -1.4466624 19 4 1.6812926e+09
-8.533576 -11.353903 -1.2370996 22 5 1.6812926e+09
-5.9521475 -5.4967661 -1.5651571 7 2 1.6812926e+09
-5.1973238 -6.9170256 -1.3663948 18 3 1.6812926e+09
-4.4042573 -4.0636601 -1.5952266 8 0 1.6812926e+09
-4.1810532 -5.5770941 -1.5986682 9 1 1.6812926e+09
-19.247568 -17.720018 6.0223804 23 14 1.6812926e+09
-10.673653 -14.244384 4.7534814 38 15 1.6812926e+09
-19.188261 -17.665409 4.1160851 24 12 1.6812926e+09
-10.722938 -14.247988 3.4562607 55 13 1.6812926e+09
-19.221567 -17.689863 2.2823911 43 10 1.6812926e+09
-10.77172 -14.266191 2.1874876 55 11 1.6812926e+09
-19.213526 -17.670073 0.45502785 40 8 1.6812926e+09
-10.800181 -14.278001 0.9364211 57 9 1.6812926e+09
-13.738235 -12.626437 -0.97931617 18 6 1.6812926e+09
-10.792673 -14.257729 -0.31152546 25 7 1.6812926e+09
-8.7863226 -8.0676336 -1.4582236 18 4 1.6812926e+09
-8.6527967 -11.429311 -1.2486247 23 5 1.6812926e+09
-5.9731078 -5.4776144 -1.5656333 8 2 1.6812926e+09
-5.2452617 -6.9303551 -1.372659 21 3 1.6812926e+09
-4.4166336 -4.0466304 -1.5945801 8 0 1.6812926e+09
-4.193162 -5.5527401 -1.5958606 8 1 1.6812926e+09
-19.47653 -17.80558 6.0746026 26 14 1.6812926e+09
-10.772762 -14.272592 4.7754526 30 15 1.6812926e+09
-19.470346 -17.799913 4.1633019 29 12 1.6812926e+09
-10.842264 -14.302408 3.4786606 34 13 1.6812926e+09
-19.47257 -17.795698 2.3048337 41 10 1.6812926e+09
-10.887524 -14.315423 2.2008741 33 11 1.6812926e+09
-19.42091 -17.73605 0.45847467 24 8 1.6812926e+09
-10.911968 -14.321648 0.94178545 37 9 1.6812926e+09
-13.828331 -12.620474 -0.98259807 18 6 1.6812926e+09
-10.920629 -14.317469 -0.31370699 23 7 1.6812926e+09
-8.9116249 -8.1255112 -1.4743483 16 4 1.6812926e+09
-8.7308674 -11.445055 -1.2538437 24 5 1.6812926e+09
-5.9867468 -5.4517741 -1.5642047 7 2 1.6812926e+09
-5.3023324 -6.9552212 -1.3812724 22 3 1.6812926e+09
-4.4350095 -4.0336642 -1.5958734 9 0 1.6812926e+09
-4.2149591 -5.5392742 -1.5964222 8 1 1.6812926e+09
-19.727964 -17.909405 6.1335626 24 14 1.6812926e+09
-10.90434 -14.342582 4.8116398 35 15 1.6812926e+09
-19.73349 -17.914406 4.2062268 38 12 1.6812926e+09
-10.969545 -14.365923 3.5034437 41 13 1.6812926e+09
-19.738731 -17.90659 2.3285835 30 10 1.6812926e+09
-11.003803 -14.364021 2.2142606 47 11 1.6812926e+09
-19.698769 -17.857803 0.46349224 23 8 1.6812926e+09
-11.037339 -14.37663 0.94806582 50 9 1.6812926e+09
-13.859692 -12.556296 -0.98154783 19 6 1.6812926e+09
-11.017734 -14.340719 -0.31505954 24 7 1.6812926e+09
-9.0223055 -8.166049 -1.4877348 16 4 1.6812926e+09
-7.2979279 -9.4964571 -1.0426952 10 5 1.6812926e+09
-6.0093818 -5.434135 -1.5651571 8 2 1.6812926e+09
-5.3220701 -6.9307928 -1.3800979 19 3 1.6812926e+09
-4.4436851 -4.0133042 -1.5939333 9 0 1.6812926e+09
-4.2342696 -5.5245271 -1.5964222 8 1 1.6812926e+09
-19.878534 -17.913624 6.1599545 1 14 1.6812926e+09
-11.00822 -14.369632 4.8342566 37 15 1.6812926e+09
-19.918259 -17.949398 4.2315912 13 12 1.6812926e+09
-11.058029 -14.372312 3.5148818 32 13 1.6812926e+09
-19.956558 -17.977592 2.3468864 24 10 1.6812926e+09
-11.108431 -14.396262 2.2252133 33 11 1.6812926e+09
-19.926334 -17.937763 0.4673754 25 8 1.6812926e+09
-11.148524 -14.417029 0.9532994 33 9 1.6812926e+09
-13.790211 -12.405999 -0.97354001 17 6 1.6812926e+09
-11.145717 -14.403011 -0.31728473 26 7 1.6812926e+09
-9.1005926 -8.1792831 -1.4959494 16 4 1.6812926e+09
-8.7968426 -11.366094 -1.2518866 1 5 1.6812926e+09
-6.021008 -5.4065671 -1.5632523 7 2 1.6812926e+09
-5.2888651 -6.837924 -1.3652202 19 3 1.6812926e+09
-4.4612632 -4.0009923 -1.5952266 8 0 1.6812926e+09
-4.2490654 -5.5039253 -1.5947375 8 1 1.6812926e+09
-20.70022 -18.52998 6.3957958 6 14 1.6812926e+09
-11.135436 -14.436331 4.8691521 29 15 1.6812926e+09
-20.667667 -18.500826 4.3779254 10 12 1.6812926e+09
-11.188265 -14.442287 3.5410943 38 13 1.6812926e+09
-20.644768 -18.467344 2.4203148 1 10 1.6812926e+09
-11.242338 -14.465178 2.2419465 37 11 1.6812926e+09
-20.099377 -17.973217 0.47003689 1 8 1.6812926e+09
-11.279069 -14.486375 0.96036482 41 9 1.6812926e+09
-13.825689 -12.355211 -0.9731462 19 6 1.6812926e+09
-11.269662 -14.458668 -0.319379 26 7 1.6812926e+09
-9.1850557 -8.2002831 -1.5053809 15 4 1.6812926e+09
-7.4205475 -9.5212307 -1.0509584 17 5 1.6812926e+09
-6.0471725 -5.3920488 -1.5651571 7 2 1.6812926e+09
-5.4825416 -7.0376673 -1.4090701 17 3 1.6812926e+09
-4.4715943 -3.9821837 -1.5939333 8 0 1.6812926e+09
-4.2658 -5.4878798 -1.5941761 8 1 1.6812926e+09
-20.788448 -18.478651 6.4030957 71 14 1.6812926e+09
-11.245008 -14.473672 4.8950005 64 15 1.6812926e+09
-20.824406 -18.51059 4.3974366 57 12 1.6812926e+09
-11.301998 -14.484425 3.5611117 46 13 1.6812926e+09
-20.817602 -18.498034 2.4333885 9 10 1.6812926e+09
-11.353926 -14.50402 2.2541161 38 11 1.6812926e+09
-20.87603 -18.5369 0.48670393 7 8 1.6812926e+09
-11.392711 -14.527474 0.96572918 40 9 1.6812926e+09
-13.870601 -12.308532 -0.97327751 23 6 1.6812926e+09
-11.403386 -14.525432 -0.32173508 26 7 1.6812926e+09
-9.213625 -8.1681709 -1.5053809 15 4 1.6812926e+09
-7.4600072 -9.4998474 -1.0516108 16 5 1.6812926e+09
-6.0641193 -5.3692818 -1.5646809 8 2 1.6812926e+09
-5.5192599 -7.0340333 -1.4122022 17 3 1.6812926e+09
-4.4890866 -3.9697495 -1.5952266 8 0 1.6812926e+09
-4.2828836 -5.4683704 -1.5930529 8 1 1.6812926e+09
-20.850998 -18.40436 6.402534 42 14 1.6812926e+09
-11.368365 -14.527544 4.9266644 32 15 1.6812926e+09
-20.866674 -18.41818 4.3927541 65 12 1.6812926e+09
-11.425256 -14.53752 3.583988 31 13 1.6812926e+09
-20.92075 -18.452906 2.4375281 78 10 1.6812926e+09
-11.475136 -14.553951 2.268111 34 11 1.6812926e+09
-20.947584 -18.463568 0.48679122 79 8 1.6812926e+09
-11.523246 -14.583584 0.9722712 37 9 1.6812926e+09
-13.919368 -12.260911 -0.97354001 27 6 1.6812926e+09
-11.523766 -14.573787 -0.32369846 29 7 1.6812926e+09
-9.2174177 -8.1113997 -1.5011215 15 4 1.6812926e+09
-8.2127466 -10.384297 -1.1529447 22 5 1.6812926e+09
-6.0754514 -5.3416004 -1.5627762 7 2 1.6812926e+09
-5.4795198 -6.9333286 -1.3957585 22 3 1.6812926e+09
-4.495656 -3.9476836 -1.5926402 8 0 1.6812926e+09
-4.3019457 -5.4533868 -1.5930529 8 1 1.6812926e+09
-21.05941 -18.45142 6.4457722 27 14 1.6812926e+09
-11.503751 -14.590106 4.9622054 39 15 1.6812926e+09
-21.106781 -18.492905 4.4290452 44 12 1.6812926e+09
-11.547001 -14.582147 3.6054349 52 13 1.6812926e+09
-21.030001 -18.419146 2.4427576 26 10 1.6812926e+09
-11.596295 -14.597302 2.2814977 55 11 1.6812926e+09
-21.021309 -18.398565 0.48700938 34 8 1.6812926e+09
-11.637804 -14.623381 0.97763568 64 9 1.6812926e+09
-13.88691 -12.14651 -0.96828902 26 6 1.6812926e+09
-11.644621 -14.621479 -0.3256619 26 7 1.6812926e+09
-9.2550192 -8.0873375 -1.5026426 19 4 1.6812926e+09
nan nan nan 0 5 1.6812926e+09
-6.0912895 -5.3160701 -1.5618238 7 2 1.6812926e+09
-5.5095072 -6.9189968 -1.3969332 23 3 1.6812926e+09
-4.5075879 -3.9303801 -1.5919935 9 0 1.6812926e+09
-4.3164129 -5.4326119 -1.5913684 8 1 1.6812926e+09
-21.362629 -18.585651 6.5187702 24 14 1.6812926e+09
-11.617669 -14.629309 4.989346 26 15 1.6812926e+09
-21.392912 -18.611977 4.4754815 40 12 1.6812926e+09
-11.674318 -14.637703 3.6292646 31 13 1.6812926e+09
-21.325321 -18.546638 2.469558 21 10 1.6812926e+09
-11.723119 -14.651693 2.2964053 33 11 1.6812926e+09
-21.26465 -18.480835 0.49115431 22 8 1.6812926e+09
-11.766826 -14.680088 0.98417765 27 9 1.6812926e+09
-13.895294 -12.068499 -0.96592605 16 6 1.6812926e+09
-11.769075 -14.672404 -0.32771257 27 7 1.6812926e+09
-9.2794437 -8.0517302 -1.5020342 24 4 1.6812926e+09
nan nan nan 0 5 1.6812926e+09
-6.1060987 -5.2915616 -1.5608715 7 2 1.6812926e+09
-5.5413437 -6.9093575 -1.3988907 17 3 1.6812926e+09
-4.5249324 -3.9177825 -1.5932868 9 0 1.6812926e+09
-4.3383918 -5.4213181 -1.5924914 8 1 1.6812926e+09
-21.646761 -18.700472 6.5855923 22 14 1.6812926e+09
-11.753113 -14.6943 5.0255332 37 15 1.6812926e+09
-21.655834 -18.708294 4.5168457 33 12 1.6812926e+09
-11.805237 -14.696373 3.6540473 35 13 1.6812926e+09
-21.619902 -18.670658 2.4961405 22 10 1.6812926e+09
-11.855677 -14.717107 2.3128345 57 11 1.6812926e+09
-21.537203 -18.586121 0.49595374 22 8 1.6812926e+09
-11.891681 -14.730241 0.99032706 73 9 1.6812926e+09
-13.994057 -12.068829 -0.96986431 17 6 1.6812926e+09
-11.900308 -14.730415 -0.3299377 29 7 1.6812926e+09
-9.3450966 -8.0516796 -1.508119 25 4 1.6812926e+09
nan nan nan 0 5 1.6812926e+09
-6.1236124 -5.2712841 -1.5608715 8 2 1.6812926e+09
-5.5642257 -6.8909435 -1.3988907 14 3 1.6812926e+09
-4.5312538 -3.895668 -1.5907003 9 0 1.6812926e+09
-4.3557615 -5.404243 -1.5919298 8 1 1.6812926e+09
-21.936062 -18.823702 6.6546597 23 14 1.6812926e+09
-11.866888 -14.736143 5.0533199 31 15 1.6812926e+09
-21.937021 -18.824511 4.5625014 23 12 1.6812926e+09
-11.914075 -14.731578 3.6726344 26 13 1.6812926e+09
-21.919386 -18.796091 2.5231588 34 10 1.6812926e+09
-11.97262 -14.75658 2.3256125 35 11 1.6812926e+09
-21.811283 -18.696789 0.50084043 22 8 1.6812926e+09
-12.0176 -14.785677 0.99673826 31 9 1.6812926e+09
-14.009354 -12.001245 -0.96815777 15 6 1.6812926e+09
-12.043126 -14.801264 -0.33246833 27 7 1.6812926e+09
-9.3679733 -8.0174189 -1.5075105 22 4 1.6812926e+09
-8.8751583 -10.909729 -1.2249222 22 5 1.6812926e+09
-6.1363773 -5.2450938 -1.5594431 7 2 1.6812926e+09
-5.5913591 -6.8753119 -1.3996737 14 3 1.6812926e+09
-4.5448246 -3.8798275 -1.5907003 9 0 1.6812926e+09
-4.3767266 -5.3935547 -1.5930529 8 1 1.6812926e+09
-22.220449 -18.933443 6.7209201 19 14 1.6812926e+09
-11.989734 -14.782804 5.0836921 38 15 1.6812926e+09
-22.211241 -18.925579 4.6058164 24 12 1.6812926e+09
-12.047545 -14.790771 3.6978939 39 13 1.6812926e+09
-22.224289 -18.929996 2.5510485 40 10 1.6812926e+09
-12.10568 -14.814636 2.341433 47 11 1.6812926e+09
-22.15243 -18.855448 0.50716692 19 8 1.6812926e+09
-12.146605 -14.838316 1.0031494 44 9 1.6812926e+09
-14.153856 -12.03961 -0.97524661 15 6 1.6812926e+09
-12.16657 -14.852145 -0.33451897 27 7 1.6812926e+09
-9.4242687 -8.008769 -1.5120741 17 4 1.6812926e+09
-7.9318023 -9.6800928 -1.0896654 23 5 1.6812926e+09
-6.1583924 -5.2268176 -1.5603955 7 2 1.6812926e+09
-5.6075072 -6.8461976 -1.3977162 15 3 1.6812926e+09
-4.5539808 -3.8616123 -1.589407 9 0 1.6812926e+09
-4.3893652 -5.3706956 -1.5908068 8 1 1.6812926e+09
-22.53005 -19.061876 6.7944803 29 14 1.6812926e+09
-12.109993 -14.825045 5.112771 32 15 1.6812926e+09
-22.526022 -19.058455 4.6573262 17 12 1.6812926e+09
-12.181573 -14.849207 3.7231534 30 13 1.6812926e+09
-22.514627 -19.042065 2.5767596 25 10 1.6812926e+09
-12.232985 -14.864277 2.3560364 32 11 1.6812926e+09
-22.477764 -18.997427 0.51310074 18 8 1.6812926e+09
-12.26342 -14.874821 1.0085139 32 9 1.6812926e+09
-14.285444 -12.065835 -0.98141658 19 6 1.6812926e+09
-12.301034 -14.909866 -0.33678779 27 7 1.6812926e+09
-9.4369936 -7.9630232 -1.5096402 10 4 1.6812926e+09
-8.7815647 -10.641907 -1.2016546 25 5 1.6812926e+09
-6.1784763 -5.2068696 -1.5608715 7 2 1.6812926e+09
-5.6580639 -6.8589759 -1.4043719 17 3 1.6812926e+09
-4.5655847 -3.8441377 -1.5887604 9 0 1.6812926e+09
-4.4034448 -5.3496947 -1.5891223 8 1 1.6812926e+09
-22.909458 -19.23922 6.8876939 33 14 1.6812926e+09
-12.251698 -14.886872 5.1496043 38 15 1.6812926e+09
-22.862366 -19.199659 4.7123475 27 12 1.6812926e+09
-12.323446 -14.910416 3.7498429 38 13 1.6812926e+09
-22.82653 -19.162771 2.6044314 24 10 1.6812926e+09
