# .PCD v0.7 - Point Cloud Data file format
VERSION 0.7
FIELDS x y z intensity ring timestamp
SIZE 4 4 4 4 2 8
TYPE F F F F U F
COUNT 1 1 1 1 1 1
WIDTH 937
HEIGHT 1
VIEWPOINT 0 0 0 1 0 0 0
POINTS 937
DATA ascii
-9.7125883 1.3736507 -1.1984024 18 4 1.6812926e+09
-13.137066 -0.51846451 -1.1448988 21 5 1.6812926e+09
-7.4603338 1.0586839 -1.4551628 21 2 1.6812926e+09
-9.8220005 -0.39159742 -1.5531484 9 3 1.6812926e+09
-6.0736313 0.86588746 -1.6333777 9 0 1.6812926e+09
-6.920723 -0.28177369 -1.5885607 7 1 1.6812926e+09
-17.179859 2.4647169 3.9924591 19 14 1.6812926e+09
-25.872957 -1.0661367 6.919559 13 15 1.6812926e+09
-17.225555 2.4712899 2.744447 24 12 1.6812926e+09
-21.712799 -0.8484683 4.2130923 42 13 1.6812926e+09
-17.260851 2.482513 1.5226108 22 10 1.6812926e+09
-25.605032 -0.96115118 3.1373255 26 11 1.6812926e+09
-17.271627 2.4871469 0.30397728 21 8 1.6812926e+09
-25.577415 -0.93777645 1.3395387 25 9 1.6812926e+09
-17.303961 2.4979722 -0.91748536 29 6 1.6812926e+09
-25.666519 -0.92760843 -0.44769785 29 7 1.6812926e+09
-9.6809673 1.4019344 -1.1950557 19 4 1.6812926e+09
-13.128757 -0.47453424 -1.144029 21 5 1.6812926e+09
-7.4274497 1.0804722 -1.4494487 21 2 1.6812926e+09
-9.84058 -0.35794619 -1.555889 9 3 1.6812926e+09
-6.0705719 0.88708311 -1.6333777 9 0 1.6812926e+09
-6.9264889 -0.25900754 -1.5896838 7 1 1.6812926e+09
-17.074745 2.5104864 3.9699979 21 14 1.6812926e+09
-25.570034 -0.96420348 6.837491 11 15 1.6812926e+09
-17.104443 2.5148683 2.7264965 24 12 1.6812926e+09
-21.700912 -0.77214456 4.2102327 42 13 1.6812926e+09
-17.146576 2.5241311 1.5132415 22 10 1.6812926e+09
-25.571032 -0.87049413 3.132762 43 11 1.6812926e+09
-17.168875 2.5335455 0.30231929 24 8 1.6812926e+09
-25.607981 -0.84940416 1.340978 42 9 1.6812926e+09
-17.201292 2.5444679 -0.91249692 32 6 1.6812926e+09
-25.652109 -0.8374359 -0.44739243 42 7 1.6812926e+09
-9.6637421 1.4338957 -1.1935346 18 4 1.6812926e+09
-13.055734 -0.42396063 -1.1375054 21 5 1.6812926e+09
-7.3775134 1.099508 -1.4404017 21 2 1.6812926e+09
-9.8467054 -0.32375857 -1.5566721 10 3 1.6812926e+09
-6.0650501 0.90790975 -1.632731 9 0 1.6812926e+09
-6.9273915 -0.23361896 -1.5896838 7 1 1.6812926e+09
-16.945429 2.5519216 3.9419215 22 14 1.6812926e+09
-25.351191 -0.86730373 6.7780404 10 15 1.6812926e+09
-17.002775 2.5605757 2.711668 25 12 1.6812926e+09
-21.696115 -0.69615191 4.2088027 35 13 1.6812926e+09
-17.014082 2.5683601 1.5023471 22 10 1.6812926e+09
-25.621037 -0.78267723 3.1385424 42 11 1.6812926e+09
-17.043314 2.5788674 0.30026865 21 8 1.6812926e+09
-25.653345 -0.75679964 1.3432022 39 9 1.6812926e+09
-17.088181 2.5917625 -0.90698326 34 6 1.6812926e+09
-25.702349 -0.74928057 -0.44822139 43 7 1.6812926e+09
-9.6731405 1.4715472 -1.1953601 21 4 1.6812926e+09
-13.059624 -0.37845808 -1.1377228 23 5 1.6812926e+09
-7.3445177 1.1208041 -1.4346876 21 2 1.6812926e+09
-9.8650522 -0.28990096 -1.5594127 15 3 1.6812926e+09
-6.0761652 0.93127435 -1.6366107 9 0 1.6812926e+09
-6.9379039 -0.20973741 -1.5919298 7 1 1.6812926e+09
-16.86614 2.6032286 3.9256372 39 14 1.6812926e+09
-25.095911 -0.76644462 6.7088966 10 15 1.6812926e+09
-16.878574 2.6051612 2.6933274 39 12 1.6812926e+09
-21.700975 -0.61669719 4.2092795 38 13 1.6812926e+09
-16.906565 2.6125116 1.4936315 38 10 1.6812926e+09
-25.586407 -0.69222504 3.1339788 17 11 1.6812926e+09
-16.927994 2.6218817 0.2983925 37 8 1.6812926e+09
-25.630875 -0.66659462 1.3418939 26 9 1.6812926e+09
-16.985283 2.6368327 -0.90199482 31 6 1.6812926e+09
-25.594862 -0.65671742 -0.44630164 23 7 1.6812926e+09
-9.6703968 1.5056859 -1.1956643 21 4 1.6812926e+09
-13.050905 -0.3326118 -1.136853 22 5 1.6812926e+09
-7.3114643 1.1418831 -1.4289737 17 2 1.6812926e+09
-9.8709393 -0.25559387 -1.5601957 24 3 1.6812926e+09
-6.0704923 0.95210367 -1.635964 9 0 1.6812926e+09
-6.9337244 -0.18538484 -1.5908068 7 1 1.6812926e+09
-16.852604 2.658385 3.9245143 31 14 1.6812926e+09
-24.895529 -0.67766124 6.6546154 11 15 1.6812926e+09
-16.879599 2.6626585 2.6948884 37 12 1.6812926e+09
-21.707808 -0.54485494 4.2102327 35 13 1.6812926e+09
-16.917021 2.6746242 1.4953747 40 10 1.6812926e+09
-25.412537 -0.59872609 3.1123779 22 11 1.6812926e+09
-16.941425 2.6815217 0.29878518 44 8 1.6812926e+09
-25.405813 -0.57640201 1.3299875 19 9 1.6812926e+09
-16.875351 2.6770957 -0.89661247 33 6 1.6812926e+09
-25.3496 -0.56184274 -0.44198215 18 7 1.6812926e+09
-9.6629 1.5373555 -1.1953601 21 4 1.6812926e+09
-12.982221 -0.28776175 -1.1307644 22 5 1.6812926e+09
-7.2880454 1.1642959 -1.4251642 16 2 1.6812926e+09
-9.8693037 -0.22107987 -1.5598043 31 3 1.6812926e+09
-6.0695162 0.97367102 -1.6366107 9 0 1.6812926e+09
-6.9391713 -0.1625081 -1.5919298 7 1 1.6812926e+09
-16.864868 2.7206893 3.9295678 10 14 1.6812926e+09
-24.639406 -0.58457726 6.5854712 10 15 1.6812926e+09
-16.892141 2.7251048 2.6984007 10 12 1.6812926e+09
-21.70467 -0.46897018 4.2092795 34 13 1.6812926e+09
-16.898226 2.7291188 1.494503 14 10 1.6812926e+09
-25.163902 -0.50494248 3.0816498 17 11 1.6812926e+09
-16.931961 2.7406421 0.29878518 24 8 1.6812926e+09
-25.130606 -0.48234731 1.3154643 16 9 1.6812926e+09
-16.774727 2.721185 -0.89175534 31 6 1.6812926e+09
-25.101488 -0.46864131 -0.43761906 16 7 1.6812926e+09
-9.6501265 1.5698793 -1.1944473 19 4 1.6812926e+09
-12.930896 -0.23919177 -1.1261977 22 5 1.6812926e+09
-7.2863588 1.1901251 -1.4256405 13 2 1.6812926e+09
-9.8576727 -0.18638907 -1.5578467 32 3 1.6812926e+09
-6.0732293 0.99602622 -1.6385506 9 0 1.6812926e+09
-6.9372849 -0.13702394 -1.5913684 7 1 1.6812926e+09
-16.864882 2.7811286 3.931814 6 14 1.6812926e+09
-24.450548 -0.49467039 6.534421 11 15 1.6812926e+09
-16.8874 2.7848568 2.6991808 7 12 1.6812926e+09
-21.713537 -0.39333883 4.2107091 33 13 1.6812926e+09
-16.932335 2.7983494 1.498425 7 10 1.6812926e+09
-24.939732 -0.41331765 3.0539637 17 11 1.6812926e+09
-16.983452 2.8128994 0.29987594 10 8 1.6812926e+09
-24.925014 -0.38698101 1.3046045 16 9 1.6812926e+09
-16.663664 2.7658784 -0.88637298 31 6 1.6812926e+09
-24.870531 -0.37744763 -0.43356135 16 7 1.6812926e+09
-9.6516514 1.6064618 -1.1953601 18 4 1.6812926e+09
-12.881847 -0.19328809 -1.1218487 22 5 1.6812926e+09
-7.2942638 1.2175752 -1.4280213 13 2 1.6812926e+09
-9.8656693 -0.15209587 -1.5590212 37 3 1.6812926e+09
-6.0625706 1.0160202 -1.6366107 9 0 1.6812926e+09
-6.9450278 -0.11293118 -1.5930529 7 1 1.6812926e+09
-28.644316 4.8327756 6.6877904 1 14 1.6812926e+09
-24.196239 -0.40076235 6.4659238 10 15 1.6812926e+09
-28.705919 4.8431849 4.5948901 1 12 1.6812926e+09
-21.702562 -0.31357214 4.2083263 34 13 1.6812926e+09
-28.753944 4.8564582 2.5482161 18 10 1.6812926e+09
-24.702827 -0.32309952 3.0247567 16 11 1.6812926e+09
-17.08197 2.8905265 0.30179572 9 8 1.6812926e+09
-24.701536 -0.29722902 1.2928289 17 9 1.6812926e+09
-16.560377 2.8081586 -0.88138455 31 6 1.6812926e+09
-24.661745 -0.28813908 -0.42989638 17 7 1.6812926e+09
-9.4820871 1.6122448 -1.1749759 19 4 1.6812926e+09
-12.757926 -0.14684299 -1.110976 22 5 1.6812926e+09
-7.2923889 1.2434427 -1.4284974 18 2 1.6812926e+09
-9.8463879 -0.11741255 -1.555889 26 3 1.6812926e+09
-6.070888 1.039217 -1.6398438 9 0 1.6812926e+09
-6.9356365 -0.088556871 -1.5908068 7 1 1.6812926e+09
-28.695354 4.9393115 6.7035127 17 14 1.6812926e+09
-23.987345 -0.3176989 6.4097037 11 15 1.6812926e+09
-28.743238 4.9475694 4.6034751 21 12 1.6812926e+09
-21.718208 -0.24176919 4.2111859 34 13 1.6812926e+09
-28.766268 4.9618807 2.5508308 24 10 1.6812926e+09
-24.475527 -0.23463735 2.9967666 17 11 1.6812926e+09
-17.173279 2.9646003 0.30358461 10 8 1.6812926e+09
-24.477703 -0.21331415 1.2810533 17 9 1.6812926e+09
-16.452576 2.8460279 -0.8761335 30 6 1.6812926e+09
-24.435143 -0.20014618 -0.42592594 16 7 1.6812926e+09
-9.5378084 1.654292 -1.1825819 19 4 1.6812926e+09
-12.745889 -0.10442887 -1.1098886 22 5 1.6812926e+09
-7.2976747 1.2705765 -1.430402 18 2 1.6812926e+09
-9.851676 -0.0830855 -1.5566721 21 3 1.6812926e+09
-6.0577087 1.0587362 -1.6372573 9 0 1.6812926e+09
-6.9456358 -0.065655619 -1.5930529 7 1 1.6812926e+09
-28.723528 5.047461 6.7141819 18 14 1.6812926e+09
-23.797531 -0.23206754 6.358654 11 15 1.6812926e+09
-28.762276 5.054285 4.6093283 17 12 1.6812926e+09
-21.709105 -0.16587994 4.2092795 34 13 1.6812926e+09
-28.803617 5.066741 2.5556242 22 10 1.6812926e+09
-24.270243 -0.14790633 2.9715147 17 11 1.6812926e+09
-28.853174 5.0858521 0.51078826 1 8 1.6812926e+09
-24.283569 -0.12681611 1.2708478 18 9 1.6812926e+09
-16.354036 2.8878028 -0.87140757 31 6 1.6812926e+09
-24.240726 -0.11389762 -0.42252272 17 7 1.6812926e+09
-9.6101646 1.7014319 -1.1923176 19 4 1.6812926e+09
-12.810941 -0.058028597 -1.1155424 19 5 1.6812926e+09
-7.2545347 1.2891628 -1.4227835 23 2 1.6812926e+09
-9.8444986 -0.048656143 -1.5554975 14 3 1.6812926e+09
-6.0611086 1.0811495 -1.6391972 9 0 1.6812926e+09
-6.9433937 -0.040182423 -1.5924914 7 1 1.6812926e+09
-28.76568 5.1584477 6.7282205 16 14 1.6812926e+09
-23.573603 -0.14754686 6.2985568 13 15 1.6812926e+09
-28.79793 5.1642451 4.6179132 16 12 1.6812926e+09
-21.726728 -0.090174958 4.212616 35 13 1.6812926e+09
-28.86084 5.185936 2.5623789 24 10 1.6812926e+09
-24.062172 -0.062604398 2.9459584 18 11 1.6812926e+09
-28.917982 5.206634 0.5122717 25 8 1.6812926e+09
-24.049191 -0.037401941 1.2585489 18 9 1.6812926e+09
-16.249979 2.9308751 -0.86641914 33 6 1.6812926e+09
-24.026009 -0.028980846 -0.41877046 18 7 1.6812926e+09
-9.5623531 1.7291299 -1.1871456 19 4 1.6812926e+09
-12.796122 -0.013288852 -1.1142377 22 5 1.6812926e+09
-7.24999 1.3144779 -1.4227835 23 2 1.6812926e+09
-9.8618927 -0.014325315 -1.5582381 11 3 1.6812926e+09
-6.0668001 1.104032 -1.6417837 9 0 1.6812926e+09
-6.9459276 -0.015952438 -1.5930529 7 1 1.6812926e+09
-28.801689 5.2739391 6.7411351 26 14 1.6812926e+09
-23.32765 -0.060456399 6.2326436 34 15 1.6812926e+09
-28.871109 5.2866673 4.6327419 18 12 1.6812926e+09
-21.724457 -0.010540205 4.2121391 34 13 1.6812926e+09
-28.908699 5.2987742 2.5682619 27 10 1.6812926e+09
-23.851322 0.021241384 2.9200981 18 11 1.6812926e+09
-28.951258 5.31703 0.51318794 24 8 1.6812926e+09
-23.871922 0.046236273 1.2492592 18 9 1.6812926e+09
-16.134073 2.9681461 -0.86077428 35 6 1.6812926e+09
-23.835993 0.054487877 -0.41545454 18 7 1.6812926e+09
-9.4976959 1.7516863 -1.1798437 21 4 1.6812926e+09
-12.758734 0.031299789 -1.110976 21 5 1.6812926e+09
-7.2067461 1.3326279 -1.4151648 23 2 1.6812926e+09
-9.8569441 0.020091444 -1.5574551 14 3 1.6812926e+09
-6.0581608 1.1243198 -1.6404904 9 0 1.6812926e+09
-6.945941 0.0082934713 -1.5930529 7 1 1.6812926e+09
-15.890528 2.9634514 3.7178724 23 14 1.6812926e+09
-23.342213 0.016908791 6.2365208 35 15 1.6812926e+09
-15.917506 2.9684982 2.5532372 17 12 1.6812926e+09
-21.717012 0.06148148 4.2107091 35 13 1.6812926e+09
-15.947096 2.9797866 1.4162809 17 10 1.6812926e+09
-23.635225 0.10359363 2.8936293 21 11 1.6812926e+09
-15.945957 2.98246 0.28255445 26 8 1.6812926e+09
-23.646946 0.12426089 1.2374836 19 9 1.6812926e+09
-16.048073 3.007369 -0.85670477 34 6 1.6812926e+09
-23.613194 0.1364482 -0.41157132 19 7 1.6812926e+09
-9.4016037 1.7662045 -1.1685869 21 4 1.6812926e+09
-12.698786 0.073285691 -1.105757 24 5 1.6812926e+09
-7.1803465 1.3536787 -1.4108793 25 2 1.6812926e+09
-9.8494072 0.054460984 -1.5562806 15 3 1.6812926e+09
-6.0589447 1.1463592 -1.6417837 10 0 1.6812926e+09
-6.9507475 0.031345706 -1.5941761 7 1 1.6812926e+09
-15.86094 3.0152597 3.7133799 34 14 1.6812926e+09
-23.339598 0.098378524 6.2358747 9 15 1.6812926e+09
-15.882789 3.019428 2.549335 35 12 1.6812926e+09
-21.731388 0.13737758 4.2135687 35 13 1.6812926e+09
-15.897983 3.0251997 1.4127946 32 10 1.6812926e+09
-23.470947 0.18483764 2.8735492 19 11 1.6812926e+09
-15.932994 3.0376356 0.28251082 35 8 1.6812926e+09
-23.449148 0.20511669 1.2271473 19 9 1.6812926e+09
-15.946748 3.0460284 -0.85184753 38 6 1.6812926e+09
-23.420149 0.21303843 -0.40821177 21 7 1.6812926e+09
-9.4124403 1.8022809 -1.1707165 19 4 1.6812926e+09
-12.753243 0.11809999 -1.110541 23 5 1.6812926e+09
-7.1683474 1.3773437 -1.4094508 26 2 1.6812926e+09
-9.8121204 0.088524751 -1.5504078 18 3 1.6812926e+09
-6.0574813 1.1669024 -1.6424303 10 0 1.6812926e+09
-6.9554682 0.055643868 -1.5952991 7 1 1.6812926e+09
-15.778571 3.0566993 3.6965344 32 14 1.6812926e+09
-23.317375 0.17968519 6.2300587 1 15 1.6812926e+09
-15.81397 3.0635731 2.5399694 33 12 1.6812926e+09
-21.725868 0.21318631 4.212616 35 13 1.6812926e+09
-15.818871 3.0673938 1.4066937 30 10 1.6812926e+09
-23.261734 0.2644372 2.8479931 21 11 1.6812926e+09
-15.843775 3.077971 0.28111464 27 8 1.6812926e+09
-23.268549 0.28480357 1.2177268 21 9 1.6812926e+09
-15.852701 3.0854487 -0.8473841 33 6 1.6812926e+09
-23.244305 0.29262054 -0.4051576 19 7 1.6812926e+09
-9.3525114 1.8246622 -1.1640232 24 4 1.6812926e+09
-12.72287 0.16224606 -1.1079316 22 5 1.6812926e+09
-7.1297774 1.3957485 -1.4027845 26 2 1.6812926e+09
-9.7524967 0.12206127 -1.5410115 19 3 1.6812926e+09
-6.0533714 1.18804 -1.6424303 10 0 1.6812926e+09
-6.952796 0.079896286 -1.5947375 7 1 1.6812926e+09
-15.681767 3.0947685 3.6763194 30 14 1.6812926e+09
nan nan nan 0 15 1.6812926e+09
-15.720813 3.1024911 2.5267019 30 12 1.6812926e+09
-21.724993 0.28902245 4.212616 34 13 1.6812926e+09
-15.710336 3.1032774 1.3979781 25 10 1.6812926e+09
-23.037367 0.34236011 2.8206115 22 11 1.6812926e+09
-15.734855 3.1138368 0.27936938 27 8 1.6812926e+09
-23.065214 0.36288312 1.2071288 22 9 1.6812926e+09
-15.758574 3.1242502 -0.84292078 30 6 1.6812926e+09
-23.015638 0.37416095 -0.40118715 21 7 1.6812926e+09
-9.2901096 1.8461632 -1.1570257 21 4 1.6812926e+09
-12.644993 0.20763695 -1.1011904 23 5 1.6812926e+09
-7.1152353 1.4187056 -1.4008799 23 2 1.6812926e+09
-9.6705389 0.15483746 -1.5280913 19 3 1.6812926e+09
-6.0537119 1.2111676 -1.6437236 10 0 1.6812926e+09
-6.9646349 0.10555546 -1.5975451 7 1 1.6812926e+09
-15.56817 3.1288378 3.6521738 26 14 1.6812926e+09
-22.320662 0.32805225 5.9638228 30 15 1.6812926e+09
-15.620314 3.1393356 2.5122635 27 12 1.6812926e+09
-21.745935 0.36522126 4.2169051 34 13 1.6812926e+09
-15.603642 3.1416564 1.3894805 25 10 1.6812926e+09
-22.86484 0.41966581 2.799619 23 11 1.6812926e+09
-15.630227 3.1526959 0.27771139 26 8 1.6812926e+09
-22.856552 0.44344091 1.1962692 23 9 1.6812926e+09
-15.673607 3.1671453 -0.83898252 30 6 1.6812926e+09
-22.886736 0.45200646 -0.39896196 9 7 1.6812926e+09
-9.2808504 1.8797078 -1.1567215 22 4 1.6812926e+09
-12.58941 0.25070399 -1.0964065 23 5 1.6812926e+09
-7.1030245 1.4420671 -1.3994514 21 2 1.6812926e+09
-9.6057539 0.18737178 -1.5179119 17 3 1.6812926e+09
-6.047081 1.2318088 -1.643077 10 0 1.6812926e+09
-6.9617882 0.12982213 -1.5969836 7 1 1.6812926e+09
-15.487388 3.1716952 3.6358893 27 14 1.6812926e+09
-22.227552 0.40819368 5.9392667 19 15 1.6812926e+09
-15.528871 3.180208 2.4993861 23 12 1.6812926e+09
-21.737091 0.4447726 4.2154751 33 13 1.6812926e+09
-15.524267 3.1820943 1.3833795 24 10 1.6812926e+09
-22.669643 0.49924448 2.7758882 22 11 1.6812926e+09
-15.553018 3.1936543 0.27653337 26 8 1.6812926e+09
-22.667671 0.51897448 1.1864561 23 9 1.6812926e+09
-15.574425 3.2037187 -0.83425659 31 6 1.6812926e+09
-15.728009 0.3669785 -0.27400276 13 7 1.6812926e+09
-9.2936735 1.9161046 -1.1591554 22 4 1.6812926e+09
-12.404208 0.29040214 -1.0803149 22 5 1.6812926e+09
-7.0568366 1.4596306 -1.3913565 23 2 1.6812926e+09
-9.5062618 0.2203366 -1.5022511 19 3 1.6812926e+09
-6.0427442 1.2529095 -1.643077 11 0 1.6812926e+09
-6.9685993 0.1542794 -1.5986682 7 1 1.6812926e+09
-15.392756 3.2083302 3.616236 31 14 1.6812926e+09
-22.037663 0.48170331 5.8888626 18 15 1.6812926e+09
-15.433069 3.2167501 2.4857283 25 12 1.6812926e+09
-21.732952 0.52058828 4.2149982 33 13 1.6812926e+09
-15.430176 3.2189631 1.3759713 26 10 1.6812926e+09
-22.489157 0.5738523 2.7539828 23 11 1.6812926e+09
-15.463481 3.2315545 0.27513716 25 8 1.6812926e+09
-22.501001 0.5937829 1.1778207 23 9 1.6812926e+09
-15.487397 3.2421978 -0.83018702 31 6 1.6812926e+09
-22.503216 0.60169542 -0.39233008 1 7 1.6812926e+09
-9.3063564 1.9526137 -1.1615894 22 4 1.6812926e+09
-12.46785 0.33541676 -1.0859686 21 5 1.6812926e+09
-7.0372896 1.4812185 -1.3884995 22 2 1.6812926e+09
-9.4387903 0.25177315 -1.4916803 22 3 1.6812926e+09
-6.0501475 1.276491 -1.6463101 11 0 1.6812926e+09
-6.9631476 0.17848182 -1.5975451 7 1 1.6812926e+09
-15.309968 3.246871 3.59939 27 14 1.6812926e+09
-21.857193 0.55413514 5.8410439 19 15 1.6812926e+09
-15.329955 3.2511246 2.4708998 24 12 1.6812926e+09
-21.679485 0.59504426 4.2049899 31 13 1.6812926e+09
-15.34576 3.2572832 1.3694346 24 10 1.6812926e+09
-22.29118 0.64281553 2.7299478 23 11 1.6812926e+09
-15.386093 3.2714686 0.27395913 23 8 1.6812926e+09
-22.326605 0.66721201 1.1687926 23 9 1.6812926e+09
-15.392966 3.2785478 -0.82572365 31 6 1.6812926e+09
-15.927442 0.48284796 -0.27753687 11 7 1.6812926e+09
-9.2946301 1.9840502 -1.1609808 24 4 1.6812926e+09
-12.386942 0.37654352 -1.0790101 23 5 1.6812926e+09
-7.0035405 1.4983782 -1.3827856 23 2 1.6812926e+09
-9.3539877 0.28059605 -1.4783686 22 3 1.6812926e+09
-6.043294 1.2970948 -1.6456634 16 0 1.6812926e+09
-6.9649172 0.20285596 -1.5981066 8 1 1.6812926e+09
-15.206244 3.2775941 3.5774906 24 14 1.6812926e+09
-21.683834 0.62173575 5.7951632 18 15 1.6812926e+09
-15.24426 3.285805 2.4588029 23 12 1.6812926e+09
-21.584177 0.66408467 4.1868796 23 13 1.6812926e+09
-15.261267 3.2950542 1.362898 25 10 1.6812926e+09
-22.120148 0.71520448 2.7092595 25 11 1.6812926e+09
-15.294537 3.3050411 0.27251932 23 8 1.6812926e+09
-22.144615 0.73531777 1.1593722 23 9 1.6812926e+09
-15.30881 3.3137214 -0.82178539 31 6 1.6812926e+09
-22.093752 0.7452144 -0.38526183 1 7 1.6812926e+09
-9.2831497 2.0138083 -1.1603724 21 4 1.6812926e+09
-12.37318 0.41720301 -1.0779228 25 5 1.6812926e+09
-6.979084 1.5186367 -1.3789762 23 2 1.6812926e+09
-9.291256 0.31120998 -1.4685807 23 3 1.6812926e+09
-6.0410886 1.3186977 -1.6463101 22 0 1.6812926e+09
-6.9642067 0.22595133 -1.5981066 7 1 1.6812926e+09
-15.130463 3.3165629 3.5623293 22 14 1.6812926e+09
-21.505323 0.69179267 5.7479901 18 15 1.6812926e+09
-15.157925 3.322598 2.4467058 25 12 1.6812926e+09
-21.424753 0.734079 4.1563778 22 13 1.6812926e+09
-15.182145 3.330694 1.3567971 25 10 1.6812926e+09
-21.94393 0.78623062 2.6879628 26 11 1.6812926e+09
-15.199902 3.3401594 0.27103585 23 8 1.6812926e+09
-21.969765 0.80633003 1.1503443 23 9 1.6812926e+09
-15.211816 3.3483458 -0.81719077 31 6 1.6812926e+09
-21.936291 0.81277001 -0.38255674 24 7 1.6812926e+09
-8.9271421 1.9691657 -1.1165618 22 4 1.6812926e+09
-12.354225 0.45974904 -1.0764006 25 5 1.6812926e+09
-6.8227835 1.5095502 -1.3489778 24 2 1.6812926e+09
-9.2160883 0.34093919 -1.4568353 26 3 1.6812926e+09
-6.0296097 1.3371528 -1.6443703 27 0 1.6812926e+09
-6.9706793 0.25051719 -1.5997913 8 1 1.6812926e+09
-15.035573 3.3508017 3.5426757 22 14 1.6812926e+09
-21.319349 0.76035446 5.6988783 18 15 1.6812926e+09
-15.061878 3.3566797 2.433048 27 12 1.6812926e+09
-21.267557 0.80306059 4.1263523 19 13 1.6812926e+09
-15.095074 3.3668537 1.3500425 25 10 1.6812926e+09
-21.777403 0.85642326 2.6678827 23 11 1.6812926e+09
-15.112527 3.3762927 0.2696833 24 8 1.6812926e+09
-21.814646 0.87692875 1.1423631 25 9 1.6812926e+09
-15.124513 3.3845153 -0.8131212 31 6 1.6812926e+09
-21.780966 0.88319117 -0.37989524 25 7 1.6812926e+09
-8.8960018 1.994881 -1.1135193 21 4 1.6812926e+09
-12.307753 0.50106364 -1.0724864 25 5 1.6812926e+09
-6.8390207 1.5382092 -1.3532633 23 2 1.6812926e+09
-9.1482277 0.37044343 -1.4462643 27 3 1.6812926e+09
-6.0225506 1.3576603 -1.6437236 30 0 1.6812926e+09
-6.9746313 0.27503663 -1.6009144 8 1 1.6812926e+09
-14.947167 3.3886433 3.5247071 22 14 1.6812926e+09
-21.152321 0.83206999 5.6549363 18 15 1.6812926e+09
-14.979636 3.3960207 2.4217315 27 12 1.6812926e+09
-21.09528 0.87403172 4.0934672 21 13 1.6812926e+09
-15.000056 3.4034114 1.3426342 25 10 1.6812926e+09
-21.632967 0.92641377 2.6505411 24 11 1.6812926e+09
-15.014742 3.4122629 0.2681562 24 8 1.6812926e+09
-21.639185 0.94936341 1.133335 25 9 1.6812926e+09
-15.031676 3.4216321 -0.80878907 31 6 1.6812926e+09
-21.600283 0.95521337 -0.37679744 26 7 1.6812926e+09
-8.8716965 2.0236073 -1.1113896 21 4 1.6812926e+09
-12.29588 0.54573244 -1.0716166 19 5 1.6812926e+09
-6.9269133 1.5834244 -1.3718337 23 2 1.6812926e+09
-9.0704079 0.39904904 -1.4341273 24 3 1.6812926e+09
-6.0175338 1.3797249 -1.6437236 31 0 1.6812926e+09
-6.9760094 0.30070135 -1.6014758 7 1 1.6812926e+09
-14.843262 3.416867 3.5028071 22 14 1.6812926e+09
-20.978134 0.89493901 5.609056 17 15 1.6812926e+09
-14.893697 3.4284954 2.4096346 27 12 1.6812926e+09
-20.925547 0.93655652 4.061059 21 13 1.6812926e+09
-14.924989 3.4411955 1.336969 25 10 1.6812926e+09
-21.458569 0.99403507 2.6295485 23 11 1.6812926e+09
-14.930278 3.4451661 0.26684728 24 8 1.6812926e+09
-21.481304 1.013852 1.125223 24 9 1.6812926e+09
-14.937547 3.4523368 -0.80432576 31 6 1.6812926e+09
-21.447008 1.0234892 -0.37417954 25 7 1.6812926e+09
-8.8286772 2.0446112 -1.1068261 22 4 1.6812926e+09
-12.296491 0.58662176 -1.0718341 18 5 1.6812926e+09
-6.8974395 1.6020361 -1.367072 22 2 1.6812926e+09
-9.0072994 0.42781115 -1.4243394 24 3 1.6812926e+09
-6.012681 1.4007215 -1.6437236 31 0 1.6812926e+09
-6.9701071 0.32361028 -1.6003529 7 1 1.6812926e+09
-14.760083 3.4520078 3.4859614 25 14 1.6812926e+09
-20.832544 0.96162277 5.57093 19 15 1.6812926e+09
-14.821527 3.4663978 2.399879 26 12 1.6812926e+09
-20.740751 1.0008814 4.0257907 21 13 1.6812926e+09
-14.838326 3.4730661 1.3302145 25 10 1.6812926e+09
-21.281479 1.0603271 2.6082516 25 11 1.6812926e+09
-14.845153 3.4801376 0.26553833 25 8 1.6812926e+09
-21.293119 1.0795147 1.1155409 25 9 1.6812926e+09
-14.859784 3.4890423 -0.80078131 32 6 1.6812926e+09
-21.263567 1.0891792 -0.37103814 25 7 1.6812926e+09
-8.8456402 2.0811038 -1.1098685 23 4 1.6812926e+09
-12.279336 0.6309256 -1.0705293 18 5 1.6812926e+09
-6.906136 1.6294879 -1.369929 21 2 1.6812926e+09
-8.9342375 0.45563966 -1.4129853 23 3 1.6812926e+09
-6.0007052 1.4200308 -1.6417837 30 0 1.6812926e+09
-6.9786072 0.3496359 -1.6025989 7 1 1.6812926e+09
-14.698172 3.4916787 3.4741695 26 14 1.6812926e+09
-20.677101 1.0268241 5.5302196 21 15 1.6812926e+09
-14.737264 3.500983 2.3881721 26 12 1.6812926e+09
-20.563118 1.0643066 3.9919524 19 13 1.6812926e+09
-14.76008 3.5118558 1.3243315 26 10 1.6812926e+09
-21.12402 1.1264478 2.5893888 25 11 1.6812926e+09
-14.756923 3.5165539 0.26418579 25 8 1.6812926e+09
-21.13446 1.1491801 1.1074288 26 9 1.6812926e+09
-14.769192 3.5249279 -0.79658049 33 6 1.6812926e+09
-21.092407 1.1542809 -0.36811486 27 7 1.6812926e+09
-8.8258877 2.1106226 -1.1083473 23 4 1.6812926e+09
-12.147743 0.66673583 -1.0592217 21 5 1.6812926e+09
-6.8622212 1.6444246 -1.3623104 21 2 1.6812926e+09
-8.8660212 0.48322949 -1.4024143 21 3 1.6812926e+09
-6.0004077 1.4420985 -1.643077 29 0 1.6812926e+09
-6.977344 0.37399366 -1.6025989 8 1 1.6812926e+09
-14.614235 3.528367 3.4573236 27 14 1.6812926e+09
-20.509205 1.0938933 5.4862776 16 15 1.6812926e+09
-14.654724 3.5381598 2.3768559 25 12 1.6812926e+09
-20.390001 1.1303326 3.9590676 16 13 1.6812926e+09
-14.675109 3.5458012 1.3177948 27 10 1.6812926e+09
-20.94385 1.1938754 2.5677879 26 11 1.6812926e+09
-14.678964 3.5521626 0.26300776 26 8 1.6812926e+09
-20.970804 1.2137485 1.0990551 27 9 1.6812926e+09
-14.698567 3.5623405 -0.79342985 33 6 1.6812926e+09
-20.960985 1.2205175 -0.3658897 25 7 1.6812926e+09
-8.8064098 2.1384881 -1.1068261 22 4 1.6812926e+09
-12.095614 0.70625061 -1.0548726 21 5 1.6812926e+09
-6.8275352 1.6625898 -1.3565965 19 2 1.6812926e+09
-8.814889 0.51287919 -1.3945839 23 3 1.6812926e+09
-6.0047212 1.4653277 -1.6456634 26 0 1.6812926e+09
-6.975996 0.39834684 -1.6025989 8 1 1.6812926e+09
-14.537948 3.5636911 3.4421623 27 14 1.6812926e+09
-20.34371 1.156332 5.4429817 17 15 1.6812926e+09
-14.567938 3.571059 2.3647587 25 12 1.6812926e+09
-20.307533 1.1968974 3.9438167 11 13 1.6812926e+09
-14.585245 3.5780087 1.3108224 30 10 1.6812926e+09
-20.798372 1.2584643 2.5504463 27 11 1.6812926e+09
-14.593653 3.58548 0.26169881 27 8 1.6812926e+09
-20.821909 1.2781029 1.0914663 27 9 1.6812926e+09
-14.606045 3.5939329 -0.78909773 33 6 1.6812926e+09
-20.789434 1.2833949 -0.36296639 26 7 1.6812926e+09
-8.7507076 2.1573265 -1.1007413 23 4 1.6812926e+09
-11.956354 0.74005783 -1.0429126 18 5 1.6812926e+09
-6.8169255 1.685233 -1.3556441 21 2 1.6812926e+09
-8.7686834 0.54093242 -1.3875366 21 3 1.6812926e+09
-6.0019131 1.4868606 -1.6463101 23 0 1.6812926e+09
-6.9842901 0.42327821 -1.604845 8 1 1.6812926e+09
-14.452136 3.5961721 3.4247549 26 14 1.6812926e+09
-20.197321 1.218788 5.4048557 18 15 1.6812926e+09
-14.478705 3.6027989 2.3522716 23 12 1.6812926e+09
-20.158714 1.2587856 3.9156973 9 13 1.6812926e+09
-14.507417 3.6126425 1.3049394 23 10 1.6812926e+09
-20.501638 1.3124161 2.5145459 27 11 1.6812926e+09
-14.513142 3.6194556 0.26047716 24 8 1.6812926e+09
-20.276695 1.3158164 1.0630741 26 9 1.6812926e+09
-14.535282 3.6303701 -0.78594714 32 6 1.6812926e+09
-20.605238 1.3442792 -0.35982499 26 7 1.6812926e+09
-8.743125 2.1878591 -1.1007413 23 4 1.6812926e+09
-11.794641 0.77144718 -1.0289955 18 5 1.6812926e+09
-6.7705364 1.6988542 -1.3475492 18 2 1.6812926e+09
-8.7421017 0.5699442 -1.3836216 18 3 1.6812926e+09
-6.0037122 1.5095707 -1.64825 21 0 1.6812926e+09
-6.9779072 0.44734687 -1.603722 8 1 1.6812926e+09
-14.375723 3.6304843 3.4095936 24 14 1.6812926e+09
-20.029053 1.2788564 5.3609138 21 15 1.6812926e+09
-14.396611 3.6357744 2.340955 24 12 1.6812926e+09
-19.924006 1.3140171 3.8708978 25 13 1.6812926e+09
-14.412625 3.6425033 1.2975311 24 10 1.6812926e+09
-19.942347 1.3466504 2.4463959 41 11 1.6812926e+09
-14.427725 3.6516862 0.25916821 25 8 1.6812926e+09
-19.9681 1.365871 1.0471116 38 9 1.6812926e+09
-14.442661 3.6608334 -0.78161502 35 6 1.6812926e+09
-19.994434 1.3746723 -0.34922263 26 7 1.6812926e+09
-8.6801195 2.2043066 -1.0937438 23 4 1.6812926e+09
-11.88878 0.81925374 -1.0374762 19 5 1.6812926e+09
-6.819263 1.7364198 -1.3585011 21 2 1.6812926e+09
-8.7449875 0.60079223 -1.3844047 18 3 1.6812926e+09
-5.9913864 1.5287253 -1.6463101 16 0 1.6812926e+09
-6.9933186 0.47284067 -1.6076527 8 1 1.6812926e+09
-14.282729 3.6600723 3.3905017 23 14 1.6812926e+09
-19.896757 1.3401911 5.3266649 18 15 1.6812926e+09
-14.312072 3.6676078 2.3292484 24 12 1.6812926e+09
-19.838505 1.3779638 3.85517 26 13 1.6812926e+09
-14.337101 3.676698 1.2918659 23 10 1.6812926e+09
-19.789013 1.4057388 2.4281416 22 11 1.6812926e+09
-14.359207 3.6877189 0.2581647 25 8 1.6812926e+09
-19.798857 1.4237834 1.0384761 21 9 1.6812926e+09
-14.364515 3.6944284 -0.77807063 31 6 1.6812926e+09
-19.849897 1.4344006 -0.34677929 32 7 1.6812926e+09
-8.6771774 2.2358315 -1.0943521 23 4 1.6812926e+09
-11.875912 0.86003256 -1.0366064 19 5 1.6812926e+09
-6.7656398 1.7479233 -1.3489778 19 2 1.6812926e+09
-8.7379093 0.63096118 -1.3836216 17 3 1.6812926e+09
-5.9930272 1.5514474 -1.64825 16 0 1.6812926e+09
-6.9867644 0.49690661 -1.6065296 8 1 1.6812926e+09
-14.194422 3.6902823 3.3725328 25 14 1.6812926e+09
-19.720917 1.3975552 5.2807846 21 15 1.6812926e+09
-14.229877 3.699517 2.3179319 25 12 1.6812926e+09
-19.684263 1.4363449 3.8260977 26 13 1.6812926e+09
-14.251876 3.7079012 1.2853293 23 10 1.6812926e+09
-19.623137 1.4628536 2.4083657 31 11 1.6812926e+09
-14.268846 3.7176433 0.25676852 24 8 1.6812926e+09
-19.631947 1.4807183 1.0299716 39 9 1.6812926e+09
-14.266984 3.7224772 -0.77347594 25 6 1.6812926e+09
-19.705187 1.4931368 -0.34433594 31 7 1.6812926e+09
-8.6213083 2.2535472 -1.0882674 23 4 1.6812926e+09
-11.892704 0.90298283 -1.0383461 19 5 1.6812926e+09
-6.7642441 1.7727746 -1.34993 19 2 1.6812926e+09
-8.7405796 0.66182864 -1.3844047 19 3 1.6812926e+09
-5.9805684 1.5705155 -1.6463101 16 0 1.6812926e+09
-6.9898472 0.52165133 -1.6076527 8 1 1.6812926e+09
-14.110788 3.7211635 3.3556871 25 14 1.6812926e+09
-19.57864 1.456208 5.2439508 39 15 1.6812926e+09
-14.142859 3.7296379 2.305835 27 12 1.6812926e+09
-19.569014 1.4966515 3.8046513 29 13 1.6812926e+09
-14.17383 3.7404611 1.2794462 24 10 1.6812926e+09
-19.516747 1.5200423 2.3958921 17 11 1.6812926e+09
-14.192952 3.7508159 0.2556341 25 8 1.6812926e+09
-19.479813 1.5376806 1.022252 38 9 1.6812926e+09
-14.205637 3.7594755 -0.77085042 19 6 1.6812926e+09
-12.191925 0.9683876 -0.21287571 8 7 1.6812926e+09
-8.613389 2.2836273 -1.0882674 23 4 1.6812926e+09
-11.88948 0.94449055 -1.0383461 19 5 1.6812926e+09
-6.7583284 1.7951958 -1.34993 21 2 1.6812926e+09
-8.7309513 0.69022989 -1.38323 21 3 1.6812926e+09
-5.9797168 1.5926263 -1.6476034 17 0 1.6812926e+09
-6.9855547 0.5458591 -1.6070911 8 1 1.6812926e+09
-14.048949 3.7547209 3.3438952 26 14 1.6812926e+09
-19.477386 1.5136632 5.2181025 21 15 1.6812926e+09
-14.066005 3.759294 2.2952988 29 12 1.6812926e+09
-19.402477 1.548687 3.7731957 19 13 1.6812926e+09
-14.086109 3.7699451 1.2726917 23 10 1.6812926e+09
-19.382708 1.5777209 2.3800714 16 11 1.6812926e+09
-14.103173 3.7771585 0.25423792 26 8 1.6812926e+09
-19.337757 1.5910425 1.0150559 37 9 1.6812926e+09
-14.135221 3.7910345 -0.76769984 1 6 1.6812926e+09
-12.173525 1.0097054 -0.21261393 10 7 1.6812926e+09
-8.6321287 2.3192654 -1.0916141 23 4 1.6812926e+09
-11.883801 0.98370779 -1.0381286 21 5 1.6812926e+09
-6.7638688 1.8219706 -1.3523109 21 2 1.6812926e+09
-8.664506 0.71545327 -1.3730506 26 3 1.6812926e+09
-5.9717898 1.6128595 -1.6469567 18 0 1.6812926e+09
-6.9885626 0.56941348 -1.6082141 8 1 1.6812926e+09
-13.972273 3.7865255 3.3287339 32 14 1.6812926e+09
-19.322742 1.5695562 5.1780376 18 15 1.6812926e+09
-13.988447 3.7909236 2.2847629 26 12 1.6812926e+09
-19.289343 1.6074629 3.7522256 17 13 1.6812926e+09
-14.00623 3.7983754 1.2665908 24 10 1.6812926e+09
-19.250984 1.6346918 2.3645554 18 11 1.6812926e+09
-14.029598 3.8099804 0.25314716 26 8 1.6812926e+09
-19.187811 1.6461908 1.0074672 38 9 1.6812926e+09
-14.059268 3.8233116 -0.76428664 34 6 1.6812926e+09
-19.270081 1.6633877 -0.33700594 32 7 1.6812926e+09
-8.6335545 2.3519936 -1.092831 25 4 1.6812926e+09
-11.897485 1.0287528 -1.0396508 19 5 1.6812926e+09
-6.7503657 1.843628 -1.3508824 18 2 1.6812926e+09
-8.617672 0.74190503 -1.3660033 30 3 1.6812926e+09
-5.9684525 1.6343334 -1.6476034 18 0 1.6812926e+09
-6.9815736 0.59461373 -1.6070911 8 1 1.6812926e+09
-13.902595 3.8197782 3.3152571 27 14 1.6812926e+09
-19.179977 1.625405 5.1412039 21 15 1.6812926e+09
-13.925126 3.8259845 2.2765682 26 12 1.6812926e+09
-19.132023 1.6616566 3.722677 18 13 1.6812926e+09
-13.934586 3.8338227 1.2613615 24 10 1.6812926e+09
-19.114151 1.6903266 2.3484304 19 11 1.6812926e+09
-13.957705 3.8454347 0.25209999 24 8 1.6812926e+09
-19.04488 1.7043004 1.000271 29 9 1.6812926e+09
-13.987404 3.8588746 -0.76113605 18 6 1.6812926e+09
-19.164572 1.7217196 -0.33526069 30 7 1.6812926e+09
-8.6535769 2.3915589 -1.0964819 24 4 1.6812926e+09
-11.846689 1.0660534 -1.0355191 22 5 1.6812926e+09
nan nan nan 0 2 1.6812926e+09
-8.5830574 0.76913404 -1.3609135 32 3 1.6812926e+09
-5.944097 1.6499847 -1.6424303 18 0 1.6812926e+09
-6.9964423 0.62047553 -1.6110218 8 1 1.6812926e+09
-13.829836 3.8543503 3.301219 27 14 1.6812926e+09
-19.058416 1.6855084 5.1101866 23 15 1.6812926e+09
-13.844409 3.8584266 2.2656417 26 12 1.6812926e+09
-19.008484 1.7211732 3.6998003 19 13 1.6812926e+09
-13.853951 3.8636994 1.2552606 24 10 1.6812926e+09
-18.972227 1.744573 2.3316975 18 11 1.6812926e+09
-13.876789 3.8752992 0.25087833 26 8 1.6812926e+09
-18.91452 1.7592385 0.99372894 35 9 1.6812926e+09
-8.7494516 2.446049 -0.47587416 9 6 1.6812926e+09
-19.009113 1.7747005 -0.33264285 30 7 1.6812926e+09
-8.6666803 2.4277794 -1.0992202 24 4 1.6812926e+09
-11.932169 1.1157126 -1.0433475 19 5 1.6812926e+09
-6.4585214 1.812392 -1.2946948 17 2 1.6812926e+09
-8.531147 0.79453677 -1.3530831 22 3 1.6812926e+09
-5.9243541 1.6667953 -1.6385506 17 0 1.6812926e+09
-6.9918084 0.6446718 -1.6104604 9 1 1.6812926e+09
-13.760713 3.8843012 3.2877424 24 14 1.6812926e+09
-18.918043 1.7363712 5.0739989 21 15 1.6812926e+09
-13.764999 3.8855243 2.2547157 27 12 1.6812926e+09
-18.878054 1.7725281 3.675494 21 13 1.6812926e+09
-13.77088 3.8923821 1.2489418 24 10 1.6812926e+09
-18.8351 1.7983197 2.3155727 18 11 1.6812926e+09
-13.806138 3.9049609 0.24983118 25 8 1.6812926e+09
-18.799236 1.811442 0.9879719 35 9 1.6812926e+09
-8.755703 2.4791331 -0.47666177 11 6 1.6812926e+09
-18.875914 1.828781 -0.33041766 31 7 1.6812926e+09
-8.6561947 2.455828 -1.0989158 25 4 1.6812926e+09
-11.953194 1.1576664 -1.0455221 19 5 1.6812926e+09
-6.5725393 1.869195 -1.3189793 23 2 1.6812926e+09
-8.4791651 0.81958663 -1.3452529 24 3 1.6812926e+09
-5.8906341 1.6795112 -1.6307911 19 0 1.6812926e+09
-6.9920568 0.66808403 -1.6110218 8 1 1.6812926e+09
-13.676806 3.9122031 3.2708967 25 14 1.6812926e+09
-18.772421 1.7891419 5.0365186 21 15 1.6812926e+09
-13.699122 3.9186022 2.2461307 26 12 1.6812926e+09
-18.752064 1.8267837 3.6521409 18 13 1.6812926e+09
-13.688463 3.9181428 1.242623 25 10 1.6812926e+09
-18.710176 1.8523498 2.3009691 18 11 1.6812926e+09
-13.725144 3.9338379 0.24860951 26 8 1.6812926e+09
-18.718273 1.869627 0.98404676 21 9 1.6812926e+09
-13.747759 3.9455161 -0.75024015 1 6 1.6812926e+09
-18.75252 1.8829502 -0.32836699 31 7 1.6812926e+09
-8.6213379 2.4784822 -1.0955691 25 4 1.6812926e+09
-12.013302 1.2079232 -1.051176 18 5 1.6812926e+09
-6.5636163 1.8914456 -1.3185031 23 2 1.6812926e+09
-8.4541407 0.84697616 -1.3417293 21 3 1.6812926e+09
-5.8638568 1.6940249 -1.6249714 19 0 1.6812926e+09
-6.9919863 0.69394571 -1.6115834 9 1 1.6812926e+09
-13.599894 3.9416027 3.2557354 24 14 1.6812926e+09
-18.657911 1.8439975 5.0074396 21 15 1.6812926e+09
-13.621325 3.9478295 2.2355945 27 12 1.6812926e+09
-18.603947 1.8779685 3.6244984 18 13 1.6812926e+09
-13.619 3.952316 1.2376115 25 10 1.6812926e+09
-18.555485 1.9025002 2.2827146 19 11 1.6812926e+09
-13.655428 3.9680674 0.24760601 27 8 1.6812926e+09
-18.609476 1.9276983 0.97868228 17 9 1.6812926e+09
-13.666089 3.9763403 -0.74656445 37 6 1.6812926e+09
-18.619032 1.935249 -0.32614183 33 7 1.6812926e+09
-8.5764637 2.4996426 -1.0910056 23 4 1.6812926e+09
-12.058557 1.2549875 -1.0555249 19 5 1.6812926e+09
-6.5428395 1.9102151 -1.3156462 19 2 1.6812926e+09
-8.4216595 0.87344092 -1.3370309 24 3 1.6812926e+09
-5.8324146 1.7070142 -1.6178585 18 0 1.6812926e+09
-6.989521 0.71834809 -1.6115834 9 1 1.6812926e+09
-13.529262 3.9749343 3.2422585 24 14 1.6812926e+09
-18.518887 1.8988541 4.9718981 23 15 1.6812926e+09
-13.557012 3.9831038 2.2273998 26 12 1.6812926e+09
-18.474894 1.9334016 3.6006687 18 13 1.6812926e+09
-13.540611 3.9808571 1.2317286 26 10 1.6812926e+09
-18.450024 1.9568151 2.270545 17 11 1.6812926e+09
-13.56956 3.9945242 0.24629706 27 8 1.6812926e+09
-18.466101 1.9780545 0.97148615 16 9 1.6812926e+09
-13.594654 4.0070724 -0.74341381 30 6 1.6812926e+09
-18.487894 1.9869053 -0.32396027 30 7 1.6812926e+09
-8.6176596 2.5443299 -1.0973946 23 4 1.6812926e+09
-12.113535 1.3034445 -1.0607439 19 5 1.6812926e+09
-6.5549579 1.9386151 -1.3194555 22 2 1.6812926e+09
-8.4480219 0.90597606 -1.3417293 24 3 1.6812926e+09
-5.8055849 1.7211791 -1.612039 18 0 1.6812926e+09
-6.9893932 0.74299759 -1.6121448 9 1 1.6812926e+09
-13.445958 3.9989347 3.2254128 24 14 1.6812926e+09
-18.418825 1.9503605 4.9466963 23 15 1.6812926e+09
-13.472726 4.0069122 2.2156932 26 12 1.6812926e+09
-18.343941 1.9812474 3.5763626 19 13 1.6812926e+09
-13.462189 4.0088987 1.2258455 26 10 1.6812926e+09
-18.309877 2.0066411 2.2541161 21 11 1.6812926e+09
-13.498749 4.0223622 0.24524993 29 8 1.6812926e+09
-18.355215 2.0277917 0.9659909 19 9 1.6812926e+09
-13.507133 4.0299959 -0.7393443 31 6 1.6812926e+09
-18.361591 2.0382202 -0.32186598 30 7 1.6812926e+09
-8.5877781 2.566494 -1.0946565 23 4 1.6812926e+09
-12.128949 1.3457971 -1.0624835 18 5 1.6812926e+09
-6.5646076 1.9664185 -1.3227886 21 2 1.6812926e+09
-8.3834505 0.92869669 -1.3319412 21 3 1.6812926e+09
-5.7741013 1.7337871 -1.604926 21 0 1.6812926e+09
-6.9917345 0.76669914 -1.6132679 9 1 1.6812926e+09
-13.380602 4.0303822 3.2130592 26 14 1.6812926e+09
-18.27986 2.0002279 4.9111552 22 15 1.6812926e+09
-13.401912 4.0368161 2.2063277 25 12 1.6812926e+09
-18.232035 2.033596 3.5558691 21 13 1.6812926e+09
-13.393979 4.0369816 1.220834 29 10 1.6812926e+09
-18.199198 2.0588527 2.241338 21 11 1.6812926e+09
-13.422408 4.050673 0.24411552 31 8 1.6812926e+09
-18.20911 2.0760481 0.95866382 18 9 1.6812926e+09
-13.442798 4.0619488 -0.73658752 29 6 1.6812926e+09
-18.238008 2.0857785 -0.31981531 29 7 1.6812926e+09
nan nan nan 0 4 1.6812926e+09
-12.247902 1.4022453 -1.0733563 21 5 1.6812926e+09
-6.5858836 1.9978776 -1.3285027 23 2 1.6812926e+09
-8.3752508 0.95739657 -1.3311583 22 3 1.6812926e+09
-5.7452164 1.7458966 -1.5984597 22 0 1.6812926e+09
-6.9865952 0.79082775 -1.6127064 9 1 1.6812926e+09
-13.3082 4.0592885 3.1990209 29 14 1.6812926e+09
-18.169577 2.0523949 4.8833685 23 15 1.6812926e+09
-13.321609 4.0633931 2.1954014 25 12 1.6812926e+09
-18.107792 2.0837882 3.5329924 21 13 1.6812926e+09
-13.320258 4.0655284 1.2153869 22 10 1.6812926e+09
-18.088385 2.1103165 2.22856 21 11 1.6812926e+09
-13.348427 4.0792303 0.24302474 25 8 1.6812926e+09
-18.082735 2.1256371 0.95238358 19 9 1.6812926e+09
-13.359308 4.087657 -0.73278052 31 6 1.6812926e+09
-18.121387 2.1365776 -0.31789556 27 7 1.6812926e+09
nan nan nan 0 4 1.6812926e+09
-12.403708 1.4639049 -1.0874908 21 5 1.6812926e+09
-6.6023283 2.0280669 -1.3332644 21 2 1.6812926e+09
-8.344883 0.98346174 -1.3268515 19 3 1.6812926e+09
-5.7113924 1.7574098 -1.5907003 22 0 1.6812926e+09
-6.9958911 0.81661493 -1.615514 9 1 1.6812926e+09
-13.240417 4.0891771 3.1861057 31 14 1.6812926e+09
-18.03516 2.1010277 4.8491197 24 15 1.6812926e+09
-13.243641 4.0901866 2.1848655 25 12 1.6812926e+09
-18.000484 2.1351564 3.5134523 21 13 1.6812926e+09
-13.253638 4.0958161 1.2105932 24 10 1.6812926e+09
-17.9725 2.1604402 2.2151732 21 11 1.6812926e+09
-13.272023 4.1065826 0.24189034 24 8 1.6812926e+09
-17.968628 2.1758661 0.94675744 18 9 1.6812926e+09
-13.294881 4.1187439 -0.73002374 30 6 1.6812926e+09
-18.002153 2.1862872 -0.31593215 27 7 1.6812926e+09
-8.918272 2.7673948 -1.1405967 18 4 1.6812926e+09
-12.452914 1.513785 -1.0922748 17 5 1.6812926e+09
-6.5858355 2.0481832 -1.3313596 21 2 1.6812926e+09
-8.3585577 1.0146582 -1.3295921 22 3 1.6812926e+09
-5.6775579 1.7687083 -1.5829407 22 0 1.6812926e+09
-6.9905791 0.84074086 -1.6149526 10 1 1.6812926e+09
-13.167935 4.1171875 3.1720676 26 14 1.6812926e+09
-17.917412 2.1507578 4.8193946 24 15 1.6812926e+09
-13.170364 4.1179605 2.1751099 26 12 1.6812926e+09
-17.866243 2.1825349 3.4886692 19 13 1.6812926e+09
-13.175088 4.1219692 1.2047102 24 10 1.6812926e+09
-17.856491 2.2097814 2.2017868 22 11 1.6812926e+09
-13.193207 4.1327033 0.2407123 24 8 1.6812926e+09
-17.844481 2.224092 0.94060796 19 9 1.6812926e+09
-13.220872 4.1464415 -0.72674185 30 6 1.6812926e+09
-17.877832 2.2345717 -0.31388149 29 7 1.6812926e+09
-8.9085579 2.7985086 -1.1405967 17 4 1.6812926e+09
-12.363528 1.5467635 -1.0848813 18 5 1.6812926e+09
-6.5646014 2.0667343 -1.3285027 21 2 1.6812926e+09
-8.3133106 1.0386479 -1.3229364 23 3 1.6812926e+09
-5.6506228 1.7819731 -1.5771211 23 0 1.6812926e+09
-6.9948554 0.86603057 -1.6166371 10 1 1.6812926e+09
-13.099344 4.1485 3.1591525 24 14 1.6812926e+09
-17.799154 2.2027984 4.7896686 21 15 1.6812926e+09
-13.105748 4.1505423 2.1669152 27 12 1.6812926e+09
-17.770464 2.2369912 3.4715116 19 13 1.6812926e+09
-13.112411 4.1551781 1.2003525 24 10 1.6812926e+09
-17.728048 2.2567751 2.1868789 23 11 1.6812926e+09
-13.142234 4.1696877 0.24005784 25 8 1.6812926e+09
-17.734678 2.276474 0.93524349 18 9 1.6812926e+09
-13.146103 4.1759672 -0.72345996 31 6 1.6812926e+09
-17.748039 2.284477 -0.31174359 30 7 1.6812926e+09
-8.7043543 2.7694132 -1.115649 18 4 1.6812926e+09
-12.525751 1.6136456 -1.0996683 18 5 1.6812926e+09
-6.4895391 2.0680091 -1.3146938 22 2 1.6812926e+09
-8.2973881 1.0660938 -1.3209788 22 3 1.6812926e+09
-5.6233521 1.7960531 -1.5713015 23 0 1.6812926e+09
-6.9988842 0.892582 -1.6183217 15 1 1.6812926e+09
-12.997358 4.1636634 3.1378145 25 14 1.6812926e+09
-17.679146 2.2475252 4.7592974 22 15 1.6812926e+09
-13.007257 4.1668482 2.1528671 33 12 1.6812926e+09
-17.62178 2.2776985 3.4438696 18 13 1.6812926e+09
-13.010084 4.1727691 1.1922905 30 10 1.6812926e+09
-17.609339 2.3041852 2.1731882 22 11 1.6812926e+09
-13.009336 4.1750398 0.2378763 38 8 1.6812926e+09
-17.618122 2.3209527 0.92948657 19 9 1.6812926e+09
-13.079894 4.2027302 -0.72057188 30 6 1.6812926e+09
-17.63092 2.3320217 -0.30982384 29 7 1.6812926e+09
nan nan nan 0 4 1.6812926e+09
-12.503047 1.6528951 -1.0981461 19 5 1.6812926e+09
-6.5103083 2.0996964 -1.3204077 22 2 1.6812926e+09
-8.2642393 1.0911883 -1.3162806 19 3 1.6812926e+09
-5.5963697 1.80898 -1.5654818 23 0 1.6812926e+09
-6.9958858 0.91578621 -1.6183217 22 1 1.6812926e+09
-12.903957 4.1834531 3.1187224 38 14 1.6812926e+09
-17.568222 2.2957945 4.7315106 23 15 1.6812926e+09
-12.924515 4.1901336 2.1415505 41 12 1.6812926e+09
-17.531002 2.3282328 3.427665 21 13 1.6812926e+09
-12.939323 4.1974387 1.1870612 42 10 1.6812926e+09
-17.495436 2.3514533 2.1601059 22 11 1.6812926e+09
-12.959024 4.2088389 0.23722182 43 8 1.6812926e+09
-17.491154 2.3664014 0.92320621 21 9 1.6812926e+09
-13.020035 4.2336879 -0.71807766 29 6 1.6812926e+09
-17.513685 2.3787761 -0.30790406 29 7 1.6812926e+09
-9.3175936 3.0346518 -1.1971854 19 4 1.6812926e+09
-12.380912 1.6829857 -1.0879257 19 5 1.6812926e+09
-6.5006061 2.1216464 -1.3199316 25 2 1.6812926e+09
-8.2261229 1.1154035 -1.3107994 19 3 1.6812926e+09
-5.5601854 1.8187351 -1.5570757 23 0 1.6812926e+09
-6.9876533 0.94077432 -1.6171986 27 1 1.6812926e+09
-12.842983 4.2132773 3.1074922 40 14 1.6812926e+09
-17.442808 2.3413925 4.6998463 24 15 1.6812926e+09
-12.846462 4.2144322 2.1310146 42 12 1.6812926e+09
-17.393885 2.3718731 3.4024057 21 13 1.6812926e+09
-12.878898 4.2300639 1.1829213 37 10 1.6812926e+09
-17.366669 2.3959239 2.1451981 21 11 1.6812926e+09
-12.881776 4.2359991 0.23608743 38 8 1.6812926e+09
-17.380976 2.4164252 0.91784185 19 9 1.6812926e+09
-12.942778 4.2610736 -0.71466452 30 6 1.6812926e+09
-17.398815 2.4250858 -0.30602792 27 7 1.6812926e+09
-9.3629637 3.0874422 -1.2044872 19 4 1.6812926e+09
-12.298491 1.7155546 -1.0811846 19 5 1.6812926e+09
-6.5118027 2.1504867 -1.323741 23 2 1.6812926e+09
-8.1610346 1.1356375 -1.3010114 19 3 1.6812926e+09
-5.5285869 1.8297786 -1.5499628 21 0 1.6812926e+09
-6.9674335 0.96283698 -1.6132679 31 1 1.6812926e+09
-12.762722 4.2388124 3.0917692 46 14 1.6812926e+09
-17.34798 2.3934484 4.6765828 22 15 1.6812926e+09
-12.793434 4.2490301 2.1247709 54 12 1.6812926e+09
-17.290285 2.4223545 3.3838186 23 13 1.6812926e+09
-12.800244 4.2537804 1.1770383 49 10 1.6812926e+09
-17.245174 2.4405651 2.1312029 23 11 1.6812926e+09
-12.80999 4.2619929 0.23504028 58 8 1.6812926e+09
-17.266153 2.4619555 0.91221571 21 9 1.6812926e+09
-12.754925 4.24861 -0.7050814 24 6 1.6812926e+09
-17.28384 2.4706225 -0.3041518 25 7 1.6812926e+09
-9.3568373 3.1216779 -1.2050958 19 4 1.6812926e+09
-12.294894 1.7588257 -1.0814021 18 5 1.6812926e+09
-6.5089121 2.1747608 -1.3246933 21 2 1.6812926e+09
-8.1447983 1.1623807 -1.2990539 21 3 1.6812926e+09
-5.5084276 1.844461 -1.5460831 22 0 1.6812926e+09
-6.9640298 0.98715198 -1.6132679 31 1 1.6812926e+09
-12.630823 4.2415457 3.0631313 26 14 1.6812926e+09
-17.215599 2.4334209 4.6429801 22 15 1.6812926e+09
-12.650531 4.2481794 2.1033084 27 12 1.6812926e+09
-17.20442 2.4685447 3.3685675 22 13 1.6812926e+09
-12.650767 4.25318 1.1646186 27 10 1.6812926e+09
-17.138319 2.486522 2.1190336 22 11 1.6812926e+09
-12.646536 4.2542205 0.2322915 26 8 1.6812926e+09
-17.151663 2.5037198 0.90658957 21 9 1.6812926e+09
-12.605911 4.2454476 -0.6975987 24 6 1.6812926e+09
-17.171232 2.5157478 -0.30231929 24 7 1.6812926e+09
-9.2711983 3.1272962 -1.1953601 17 4 1.6812926e+09
-12.200276 1.7866292 -1.0735737 18 5 1.6812926e+09
-6.4175873 2.1691554 -1.3075513 19 2 1.6812926e+09
-8.1480207 1.1918721 -1.3002284 23 3 1.6812926e+09
-5.4699364 1.8528212 -1.5370302 23 0 1.6812926e+09
-6.9607177 1.0102401 -1.6132679 34 1 1.6812926e+09
-12.498304 4.2456322 3.0344934 24 14 1.6812926e+09
-17.10183 2.4782882 4.6145473 23 15 1.6812926e+09
-12.532751 4.2573509 2.0861387 23 12 1.6812926e+09
-17.08886 2.512903 3.3475974 21 13 1.6812926e+09
-12.523414 4.2566228 1.1541599 29 10 1.6812926e+09
-17.031353 2.5317621 2.1068637 24 11 1.6812926e+09
-12.525127 4.2620897 0.23032811 71 8 1.6812926e+09
-17.029234 2.5466204 0.90057099 21 9 1.6812926e+09
-12.529575 4.2684851 -0.6941855 29 6 1.6812926e+09
-17.048632 2.5586362 -0.30031228 24 7 1.6812926e+09
-9.2250004 3.1476135 -1.1907964 21 4 1.6812926e+09
-12.297092 1.8468304 -1.0827068 22 5 1.6812926e+09
-6.4146209 2.1931331 -1.3085036 21 2 1.6812926e+09
-8.1511374 1.2214004 -1.3014028 19 3 1.6812926e+09
-5.4451613 1.8656361 -1.5318573 22 0 1.6812926e+09
-6.949739 1.0346742 -1.6115834 32 1 1.6812926e+09
-12.485713 4.2900252 3.0350552 27 14 1.6812926e+09
-16.983185 2.5216837 4.5848217 25 15 1.6812926e+09
-12.496797 4.2938485 2.0826266 29 12 1.6812926e+09
-16.936798 2.5510123 3.3194783 24 13 1.6812926e+09
-12.505374 4.3016844 1.153942 29 10 1.6812926e+09
-16.902203 2.5729315 2.0919561 31 11 1.6812926e+09
-12.521239 4.3120394 0.23054628 32 8 1.6812926e+09
-16.911201 2.5924025 0.89481401 37 9 1.6812926e+09
-12.570488 4.3339162 -0.69733614 29 6 1.6812926e+09
-16.940769 2.6029732 -0.29856703 23 7 1.6812926e+09
-9.1782217 3.1692488 -1.1862327 21 4 1.6812926e+09
-12.297957 1.8908768 -1.0833592 22 5 1.6812926e+09
-6.3814144 2.2066817 -1.3032658 18 2 1.6812926e+09
-8.0955667 1.2420114 -1.2931811 21 3 1.6812926e+09
-5.4180822 1.8775095 -1.5260377 23 0 1.6812926e+09
-6.9388599 1.0578305 -1.6098988 32 1 1.6812926e+09
-12.492913 4.3437624 3.0406702 42 14 1.6812926e+09
-16.837734 2.5632336 4.5479879 32 15 1.6812926e+09
-12.506631 4.348547 2.0869191 42 12 1.6812926e+09
-16.866695 2.6037273 3.3075635 41 13 1.6812926e+09
-12.537324 4.3616824 1.1582998 44 10 1.6812926e+09
-16.904917 2.6367726 2.0934772 41 11 1.6812926e+09
-12.539157 4.3672342 0.23115711 55 8 1.6812926e+09
-16.939049 2.6572115 0.89677662 43 9 1.6812926e+09
-12.597714 4.39257 -0.6996991 33 6 1.6812926e+09
-16.813047 2.6434877 -0.29647273 24 7 1.6812926e+09
-9.1507044 3.1955378 -1.184103 22 4 1.6812926e+09
-12.271599 1.9307039 -1.0816195 23 5 1.6812926e+09
-6.3871813 2.2349229 -1.3061229 21 2 1.6812926e+09
-8.069005 1.2682368 -1.2896574 22 3 1.6812926e+09
-5.3932648 1.8900156 -1.5208646 22 0 1.6812926e+09
-6.9447541 1.0835408 -1.6121448 29 1 1.6812926e+09
-12.452396 4.3784523 3.0344934 48 14 1.6812926e+09
-16.857321 2.626446 4.5557427 38 15 1.6812926e+09
-12.484386 4.3897176 2.0857484 48 12 1.6812926e+09
-16.874474 2.6652629 3.3108997 33 13 1.6812926e+09
-12.484436 4.3921905 1.1548136 46 10 1.6812926e+09
-16.905411 2.6973271 2.0946941 7 11 1.6812926e+09
-12.490829 4.3993483 0.23054628 44 8 1.6812926e+09
-16.929668 2.7163236 0.89677662 10 9 1.6812926e+09
-12.537572 4.4207377 -0.69720483 32 6 1.6812926e+09
-16.707462 2.6867082 -0.29477113 24 7 1.6812926e+09
-9.1114187 3.2175403 -1.1804522 19 4 1.6812926e+09
-12.230357 1.9680014 -1.0785751 21 5 1.6812926e+09
-6.4117293 2.2686739 -1.3127892 19 2 1.6812926e+09
-8.0474634 1.2936616 -1.2869167 22 3 1.6812926e+09
-5.3752546 1.9047936 -1.5176315 23 0 1.6812926e+09
-6.9553647 1.11007 -1.615514 24 1 1.6812926e+09
-12.395723 4.407197 3.0243862 41 14 1.6812926e+09
-16.874283 2.6894474 4.562851 8 15 1.6812926e+09
-12.410824 4.4125814 2.0759928 44 12 1.6812926e+09
-16.850531 2.7218051 3.3080399 8 13 1.6812926e+09
-12.415062 4.4165368 1.1498022 44 10 1.6812926e+09
-16.903242 2.7575181 2.0956068 6 11 1.6812926e+09
-12.421242 4.4236279 0.22954278 40 8 1.6812926e+09
-16.892982 2.7709646 0.89533734 3 9 1.6812926e+09
-12.482089 4.4502168 -0.69497317 33 6 1.6812926e+09
-16.596853 2.7284153 -0.29298228 23 7 1.6812926e+09
-9.1445293 3.2651875 -1.1862327 16 4 1.6812926e+09
-12.17426 2.0026147 -1.074226 21 5 1.6812926e+09
-6.3806653 2.282768 -1.3080275 19 2 1.6812926e+09
-8.0307159 1.3197497 -1.2849592 21 3 1.6812926e+09
-5.3412952 1.9137623 -1.5098721 19 0 1.6812926e+09
-6.9562569 1.1351236 -1.6166371 19 1 1.6812926e+09
-12.327538 4.431478 3.0114708 38 14 1.6812926e+09
-16.81712 2.7405772 4.5499268 7 15 1.6812926e+09
-12.341901 4.436657 2.0670176 40 12 1.6812926e+09
