# .PCD v0.7 - Point Cloud Data file format
VERSION 0.7
FIELDS x y z intensity ring timestamp
SIZE 4 4 4 4 2 8
TYPE F F F F U F
COUNT 1 1 1 1 1 1
WIDTH 976
HEIGHT 1
VIEWPOINT 0 0 0 1 0 0 0
POINTS 976
DATA ascii
8.0682421 -7.3324366 2.9079208 59 15 1.681198e+09
3.6416407 -4.7913532 0.94551331 44 12 1.681198e+09
8.046958 -7.3438478 2.1089292 58 13 1.681198e+09
6.6553292 -8.7620506 0.95958477 4 10 1.681198e+09
5.2507071 -4.8075008 0.86860591 4 11 1.681198e+09
6.2535191 -8.2388573 0.17993429 2 8 1.681198e+09
5.2941508 -4.8573966 0.37472543 1 9 1.681198e+09
3.6968668 -4.8729033 -0.31978741 9 6 1.681198e+09
5.4002161 -4.9580498 -0.12735893 38 7 1.681198e+09
4.3102937 -5.688117 -0.87073559 10 4 1.681198e+09
5.3659558 -4.926651 -0.63301051 10 5 1.681198e+09
4.3270173 -5.7163944 -1.384214 6 2 1.681198e+09
5.1460223 -4.720058 -1.1017292 8 3 1.681198e+09
3.6922584 -4.8844619 -1.6301444 17 0 1.681198e+09
5.0823188 -4.6519856 -1.5801378 12 1 1.681198e+09
8.1208916 -10.762166 3.0996306 50 14 1.681198e+09
8.0759687 -7.3884807 2.9195526 60 15 1.681198e+09
3.6182964 -4.7935462 0.94356221 44 12 1.681198e+09
8.0496788 -7.3953848 2.1160779 59 13 1.681198e+09
6.6606832 -8.8329573 0.96481407 3 10 1.681198e+09
5.2192912 -4.8123531 0.86617202 3 11 1.681198e+09
6.2938576 -8.3493814 0.1818977 3 8 1.681198e+09
5.2981997 -4.8935461 0.37616467 2 9 1.681198e+09
3.6686735 -4.8691807 -0.31873721 24 6 1.681198e+09
5.3590035 -4.9548249 -0.12679173 14 7 1.681198e+09
4.3122907 -5.7301421 -0.87499499 10 4 1.681198e+09
5.4008298 -4.9917183 -0.6390993 12 5 1.681198e+09
nan nan nan 0 2 1.681198e+09
5.160368 -4.7664528 -1.108385 10 3 1.681198e+09
3.6693904 -4.8895931 -1.627558 19 0 1.681198e+09
5.0399747 -4.6440701 -1.5717149 15 1 1.681198e+09
8.1168623 -10.835297 3.112546 45 14 1.681198e+09
8.0714512 -7.4362531 2.9273071 59 15 1.681198e+09
3.5926602 -4.7942882 0.94122082 44 12 1.681198e+09
8.0526495 -7.4500928 2.1237035 58 13 1.681198e+09
6.6626992 -8.896863 0.96938974 3 10 1.681198e+09
5.1951833 -4.8237934 0.86495507 3 11 1.681198e+09
6.2976155 -8.4153337 0.18285759 4 8 1.681198e+09
nan nan nan 0 9 1.681198e+09
3.648665 -4.8779583 -0.31847468 28 6 1.681198e+09
5.5182981 -5.1359477 -0.1309803 10 7 1.681198e+09
4.3145328 -5.7749834 -0.87955862 185 4 1.681198e+09
5.3377695 -4.9681482 -0.63366294 6 5 1.681198e+09
nan nan nan 0 2 1.681198e+09
5.0948548 -4.7390642 -1.097814 10 3 1.681198e+09
3.6445003 -4.8901143 -1.6236781 21 0 1.681198e+09
5.0130119 -4.6517 -1.5683458 15 1 1.681198e+09
8.1211424 -10.920259 3.12883 46 14 1.681198e+09
8.0773249 -7.4939356 2.9389386 60 15 1.681198e+09
3.5685365 -4.7968917 0.93926972 45 12 1.681198e+09
8.0499468 -7.4998946 2.1298993 58 13 1.681198e+09
6.6717134 -8.9740372 0.97527272 3 10 1.681198e+09
5.1638041 -4.8283496 0.86252111 9 11 1.681198e+09
6.278635 -8.4513121 0.183163 3 8 1.681198e+09
nan nan nan 0 9 1.681198e+09
3.6152496 -4.8686123 -0.31703064 17 6 1.681198e+09
5.5094604 -5.1637206 -0.13119847 9 7 1.681198e+09
4.3076477 -5.8079495 -0.8822968 139 4 1.681198e+09
5.3240309 -4.9901547 -0.63409781 4 5 1.681198e+09
4.4436002 -6.0000768 -1.44183 7 2 1.681198e+09
5.0584464 -4.7382646 -1.0935074 9 3 1.681198e+09
3.6216655 -4.8950391 -1.6210917 22 0 1.681198e+09
4.9807143 -4.6542115 -1.563292 14 1 1.681198e+09
8.1220331 -11.001461 3.1439912 45 14 1.681198e+09
8.0775967 -7.546804 2.9486315 60 15 1.681198e+09
3.5415056 -4.7954111 0.93653816 44 12 1.681198e+09
8.0523653 -7.5548029 2.1375246 59 13 1.681198e+09
6.6728768 -9.0413599 0.98006636 3 10 1.681198e+09
5.1396875 -4.8395457 0.86130416 3 11 1.681198e+09
6.2016301 -8.4087954 0.18176681 8 8 1.681198e+09
6.6786485 -6.2977204 0.47926652 1 9 1.681198e+09
3.5937905 -4.8751721 -0.3166368 4 6 1.681198e+09
nan nan nan 0 7 1.681198e+09
4.2888188 -5.8249493 -0.88260102 103 4 1.681198e+09
5.2948341 -4.999382 -0.63279307 7 5 1.681198e+09
4.4153633 -6.0056629 -1.4394493 8 2 1.681198e+09
5.0364842 -4.750814 -1.0923328 8 3 1.681198e+09
3.5879846 -4.8868632 -1.6139787 24 0 1.681198e+09
4.940547 -4.650744 -1.5559921 14 1 1.681198e+09
8.1253366 -11.086734 3.1602757 45 14 1.681198e+09
8.0775995 -7.5997667 2.9583249 59 15 1.681198e+09
3.5101504 -4.7878251 0.9326359 45 12 1.681198e+09
8.0580683 -7.6131887 2.1461034 60 13 1.681198e+09
6.6691194 -9.1059465 0.98442411 3 10 1.681198e+09
5.1101518 -4.8455138 0.85917449 3 11 1.681198e+09
6.191431 -8.459712 0.18237764 7 8 1.681198e+09
6.6663871 -6.3324671 0.48005152 2 9 1.681198e+09
3.564111 -4.8721881 -0.3155866 4 6 1.681198e+09
6.637845 -6.3097811 -0.15925321 2 7 1.681198e+09
4.2762208 -5.852653 -0.88442647 30 4 1.681198e+09
5.2845745 -5.024694 -0.63366294 8 5 1.681198e+09
4.3828015 -6.005177 -1.43564 9 2 1.681198e+09
5.0037475 -4.7530713 -1.0888091 8 3 1.681198e+09
3.5637951 -4.8895984 -1.6107457 27 0 1.681198e+09
4.9154372 -4.6595879 -1.5531845 14 1 1.681198e+09
8.1218939 -11.167669 3.1748753 49 14 1.681198e+09
8.0759945 -7.6542306 2.9680181 57 15 1.681198e+09
3.4853177 -4.7906723 0.9306848 42 12 1.681198e+09
8.0514507 -7.6629658 2.1518226 56 13 1.681198e+09
6.6738982 -9.1795349 0.98987138 4 10 1.681198e+09
5.0761981 -4.8487959 0.85643637 1 11 1.681198e+09
6.2220879 -8.5641947 0.18416651 3 8 1.681198e+09
6.6460471 -6.3574238 0.48018241 1 9 1.681198e+09
3.5368171 -4.8704557 -0.31466767 8 6 1.681198e+09
6.6157789 -6.3329129 -0.15925321 3 7 1.681198e+09
4.2266364 -5.8273635 -0.87834162 3 4 1.681198e+09
5.2670031 -5.0431104 -0.63366294 7 5 1.681198e+09
4.3348584 -5.9854159 -1.4270689 8 2 1.681198e+09
4.9827228 -4.7679672 -1.088026 8 3 1.681198e+09
3.5311406 -4.8804817 -1.6036328 29 0 1.681198e+09
4.879746 -4.6582274 -1.5470077 17 1 1.681198e+09
8.121357 -11.249287 3.1900365 46 14 1.681198e+09
8.0771894 -7.7090402 2.9783573 60 15 1.681198e+09
3.4642389 -4.7968016 0.92951411 40 12 1.681198e+09
8.0601034 -7.7249722 2.1613545 58 13 1.681198e+09
6.6709585 -9.2431698 0.99422908 3 10 1.681198e+09
5.0681891 -4.8750806 0.85795754 1 11 1.681198e+09
6.2652464 -8.6872435 0.18634807 3 8 1.681198e+09
6.6795812 -6.4342489 0.48423842 1 9 1.681198e+09
3.5095797 -4.8685927 -0.31374875 28 6 1.681198e+09
6.6260419 -6.3871775 -0.16003856 2 7 1.681198e+09
4.2439542 -5.8944488 -0.88625187 4 4 1.681198e+09
5.2673068 -5.0787401 -0.6358375 7 5 1.681198e+09
4.3010497 -5.9825735 -1.4227835 8 2 1.681198e+09
4.960712 -4.7801948 -1.0868516 8 3 1.681198e+09
3.5112662 -4.888854 -1.6023395 34 0 1.681198e+09
4.8388524 -4.6516132 -1.5391463 16 1 1.681198e+09
8.1260233 -11.338956 3.207444 46 14 1.681198e+09
8.0833273 -7.768971 2.9906352 60 15 1.681198e+09
3.4374063 -4.7948141 0.92678255 40 12 1.681198e+09
8.0542879 -7.7735028 2.1670735 58 13 1.681198e+09
6.6676555 -9.3068933 0.99858689 4 10 1.681198e+09
5.0234542 -4.8642607 0.85308969 2 11 1.681198e+09
6.3003469 -8.8005304 0.18831146 3 8 1.681198e+09
6.6768012 -6.4766369 0.48567766 3 9 1.681198e+09
3.4838502 -4.8686295 -0.3129611 30 6 1.681198e+09
5.0999689 -4.9520268 -0.12347577 1 7 1.681198e+09
4.2103715 -5.8910542 -0.88351369 4 4 1.681198e+09
5.2566981 -5.1040306 -0.63670725 6 5 1.681198e+09
4.2826123 -5.9988012 -1.4232596 9 2 1.681198e+09
4.9412861 -4.7931828 -1.0860685 7 3 1.681198e+09
3.4787655 -4.879447 -1.5952266 36 0 1.681198e+09
4.8068218 -4.6532373 -1.5340925 15 1 1.681198e+09
8.1279211 -11.421422 3.2231667 45 14 1.681198e+09
8.0835657 -7.8209114 3.0003283 56 15 1.681198e+09
3.4171927 -4.8001499 0.92561185 36 12 1.681198e+09
8.0601616 -7.8309383 2.1756523 53 13 1.681198e+09
6.6712041 -9.3808575 1.0040342 3 10 1.681198e+09
4.9904447 -4.8661852 0.85035151 2 11 1.681198e+09
6.2870564 -8.8437881 0.18879139 1 8 1.681198e+09
6.6892414 -6.5318656 0.48816359 4 9 1.681198e+09
3.461904 -4.8720131 -0.31243598 23 6 1.681198e+09
5.0915937 -4.9785309 -0.12369392 2 7 1.681198e+09
4.1936841 -5.9090319 -0.88412219 6 4 1.681198e+09
5.1702394 -5.0535855 -0.62822652 1 5 1.681198e+09
4.257391 -6.0077052 -1.4218311 9 2 1.681198e+09
4.9174547 -4.8035054 -1.0845025 6 3 1.681198e+09
3.4547391 -4.8817019 -1.5919935 37 0 1.681198e+09
4.8018403 -4.6793456 -1.5374618 13 1 1.681198e+09
8.131567 -11.511413 3.2405741 44 14 1.681198e+09
8.0787125 -7.8709803 3.0087287 57 15 1.681198e+09
3.3932939 -4.8019638 0.92366076 34 12 1.681198e+09
8.0608559 -7.8864746 2.1832776 46 13 1.681198e+09
6.6730938 -9.4497232 1.0090456 4 10 1.681198e+09
4.9486246 -4.8592525 0.84609216 2 11 1.681198e+09
6.1293516 -8.685935 0.18495187 1 8 1.681198e+09
6.6877732 -6.5761709 0.4897337 4 9 1.681198e+09
3.4348078 -4.8697839 -0.31151706 6 6 1.681198e+09
5.0866604 -5.0085425 -0.12399934 2 7 1.681198e+09
4.1958899 -5.9560976 -0.88899004 4 4 1.681198e+09
5.267107 -5.1860075 -0.6423611 9 5 1.681198e+09
4.2321596 -6.0165076 -1.4204026 8 2 1.681198e+09
4.8988957 -4.8189101 -1.0841109 6 3 1.681198e+09
3.4265776 -4.8779192 -1.5868205 40 0 1.681198e+09
4.8055334 -4.7173786 -1.5442001 12 1 1.681198e+09
8.1304884 -11.595581 3.2562969 45 14 1.681198e+09
8.0891294 -7.936326 3.0229452 59 15 1.681198e+09
3.3694239 -4.8036685 0.9217096 28 12 1.681198e+09
8.0612602 -7.9421105 2.1909032 44 13 1.681198e+09
6.6827083 -9.5373526 1.0158002 3 10 1.681198e+09
4.9157414 -4.8608041 0.84335399 2 11 1.681198e+09
6.1591101 -8.7963982 0.186828 1 8 1.681198e+09
6.6671748 -6.6041512 0.48999539 4 9 1.681198e+09
6.2100372 -8.8757505 -0.56776708 1 6 1.681198e+09
6.6463361 -6.5881166 -0.16274369 3 7 1.681198e+09
6.2631273 -8.9616337 -1.3362232 2 4 1.681198e+09
5.2330451 -5.1885896 -0.64040399 7 5 1.681198e+09
4.2069182 -6.0252061 -1.4189742 7 2 1.681198e+09
4.9241743 -4.8776579 -1.0935074 7 3 1.681198e+09
3.3984842 -4.8739996 -1.5816474 7 0 1.681198e+09
4.8115749 -4.7563725 -1.5515 13 1 1.681198e+09
8.1310558 -11.687302 3.2737043 45 14 1.681198e+09
8.0857639 -7.9913745 3.0326385 57 15 1.681198e+09
3.3405149 -4.7997684 0.9185878 22 12 1.681198e+09
8.0599794 -7.9992523 2.1985288 40 13 1.681198e+09
6.6763887 -9.599473 1.01994 4 10 1.681198e+09
4.8811493 -4.860436 0.84031159 2 11 1.681198e+09
6.4692307 -9.308466 0.19725581 1 8 1.681198e+09
6.6582279 -6.6414814 0.49104208 8 9 1.681198e+09
6.3598323 -9.1578236 -0.5844391 9 6 1.681198e+09
6.6232986 -6.6112766 -0.16274369 7 7 1.681198e+09
6.2714014 -9.0405369 -1.3447421 1 4 1.681198e+09
nan nan nan 0 5 1.681198e+09
nan nan nan 0 2 1.681198e+09
4.9071178 -4.8948164 -1.0935074 8 3 1.681198e+09
nan nan nan 0 0 1.681198e+09
4.8018537 -4.7800093 -1.5537461 17 1 1.681198e+09
8.1324024 -11.772332 3.2899885 44 14 1.681198e+09
8.088336 -8.0470886 3.0436237 57 15 1.681198e+09
3.3231766 -4.8087873 0.91819757 17 12 1.681198e+09
8.0629339 -8.0554113 2.2066309 39 13 1.681198e+09
6.6753745 -9.6698647 1.0249515 3 10 1.681198e+09
4.8588929 -4.8721776 0.83939892 3 11 1.681198e+09
6.5902019 -9.5500221 0.20192432 1 8 1.681198e+09
6.7084327 -6.7360163 0.49640653 3 9 1.681198e+09
6.3350964 -9.1870842 -0.58496416 19 6 1.681198e+09
6.6089997 -6.6432123 -0.16296183 8 7 1.681198e+09
4.8425555 -7.0297718 -1.0423272 1 4 1.681198e+09
6.5510225 -6.5827112 -0.80784404 8 5 1.681198e+09
4.4317183 -6.4427204 -1.5103979 2 2 1.681198e+09
4.8900023 -4.9119158 -1.0935074 9 3 1.681198e+09
3.1907926 -4.6447597 -1.4995259 1 0 1.681198e+09
4.8100839 -4.8200312 -1.5616075 29 1 1.681198e+09
8.1353359 -11.864947 3.3079574 40 14 1.681198e+09
8.0857983 -8.1009016 3.0533171 57 15 1.681198e+09
3.3007858 -4.8122115 0.91663671 14 12 1.681198e+09
8.0572681 -8.1061268 2.2128267 39 13 1.681198e+09
6.6812811 -9.7474174 1.0308346 3 10 1.681198e+09
4.8540874 -4.901443 0.84152859 6 11 1.681198e+09
6.6401463 -9.6946535 0.20449856 1 8 1.681198e+09
6.7094679 -6.7842317 0.49823827 3 9 1.681198e+09
6.3170862 -9.2297468 -0.58627695 6 6 1.681198e+09
6.6238494 -6.7024093 -0.16387808 6 7 1.681198e+09
4.8291888 -7.0630221 -1.0447611 1 4 1.681198e+09
6.422914 -6.4993048 -0.79479682 6 5 1.681198e+09
4.3967514 -6.4399061 -1.5061125 3 2 1.681198e+09
5.0100565 -5.0675817 -1.1244372 6 3 1.681198e+09
3.1631312 -4.6373572 -1.4937063 2 0 1.681198e+09
4.7915139 -4.8350625 -1.5610459 44 1 1.681198e+09
8.1336088 -11.951681 3.3242414 43 14 1.681198e+09
8.0863857 -8.1582241 3.0643024 59 15 1.681198e+09
3.2811899 -4.8196206 0.91585624 12 12 1.681198e+09
8.0616932 -8.1673737 2.2218819 40 13 1.681198e+09
6.6668239 -9.799511 1.033885 3 10 1.681198e+09
4.7829742 -4.8635468 0.83209711 7 11 1.681198e+09
6.6343651 -9.75912 0.20537119 1 8 1.681198e+09
6.7400017 -6.8628035 0.5022943 3 9 1.681198e+09
6.263792 -9.2207613 -0.58430779 14 6 1.681198e+09
6.6179304 -6.7433219 -0.1643144 6 7 1.681198e+09
6.3298087 -9.3284731 -1.3779041 1 4 1.681198e+09
6.3670268 -6.4879293 -0.79066521 10 5 1.681198e+09
4.3797507 -6.4633427 -1.5080172 3 2 1.681198e+09
5.0234942 -5.1167336 -1.1314845 6 3 1.681198e+09
3.1469247 -4.6483703 -1.4937063 3 0 1.681198e+09
4.7643476 -4.8413472 -1.5576768 42 1 1.681198e+09
8.1341047 -12.042587 3.3416491 44 14 1.681198e+09
8.0832815 -8.2122078 3.0739956 59 15 1.681198e+09
3.2532914 -4.8146729 0.91273445 10 12 1.681198e+09
8.0606318 -8.2234955 2.2295074 42 13 1.681198e+09
3.2884569 -4.8685932 0.51095051 2 10 1.681198e+09
4.7486196 -4.8624725 0.82905471 8 11 1.681198e+09
6.6338053 -9.831953 0.20641832 1 8 1.681198e+09
4.7662611 -4.8890085 0.35601532 2 9 1.681198e+09
6.2845893 -9.3212385 -0.58929628 1 6 1.681198e+09
4.9056125 -5.0370197 -0.12212321 1 7 1.681198e+09
6.2417769 -9.2681751 -1.3657346 1 4 1.681198e+09
6.3345098 -6.5023055 -0.7895779 6 5 1.681198e+09
4.3804388 -6.5132174 -1.516112 3 2 1.681198e+09
5.0056028 -5.1342378 -1.1314845 4 3 1.681198e+09
3.1231368 -4.649847 -1.4904732 3 0 1.681198e+09
4.7244244 -4.8361387 -1.5503769 40 1 1.681198e+09
8.1313496 -12.129594 3.3579333 44 14 1.681198e+09
8.0866537 -8.2731752 3.0862732 58 15 1.681198e+09
3.2309659 -4.8177948 0.91117358 9 12 1.681198e+09
8.0661268 -8.2867413 2.2390394 45 13 1.681198e+09
5.1497459 -7.6866021 0.80640846 8 10 1.681198e+09
4.7126017 -4.8594365 0.82570809 9 11 1.681198e+09
6.6255279 -9.8977499 0.20729095 8 8 1.681198e+09
4.7291985 -4.886724 0.35457608 2 9 1.681198e+09
6.3627906 -9.512311 -0.59992963 1 6 1.681198e+09
6.6755795 -6.9000406 -0.1669759 1 7 1.681198e+09
6.1926045 -9.2682915 -1.3623879 1 4 1.681198e+09
nan nan nan 0 5 1.681198e+09
4.3399701 -6.5019274 -1.5099218 4 2 1.681198e+09
5.0134296 -5.1782722 -1.1373572 3 3 1.681198e+09
3.1015313 -4.6526814 -1.4878868 3 0 1.681198e+09
4.6905403 -4.8351274 -1.5447617 39 1 1.681198e+09
8.1380939 -12.236403 3.3792713 44 14 1.681198e+09
8.0798311 -8.327014 3.0953202 56 15 1.681198e+09
3.2160208 -4.8337173 0.91195399 9 12 1.681198e+09
8.0612907 -8.3427114 2.2461882 45 13 1.681198e+09
5.1049619 -7.6775684 0.80357599 9 10 1.681198e+09
4.6852746 -4.86514 0.82388264 8 11 1.681198e+09
6.6310425 -9.9812021 0.20855625 1 8 1.681198e+09
4.6844139 -4.8744197 0.35248265 3 9 1.681198e+09
5.8822708 -8.8604937 -0.55739629 1 6 1.681198e+09
6.5994744 -6.8692489 -0.16566695 1 7 1.681198e+09
3.2632263 -4.9196115 -0.7195282 1 4 1.681198e+09
6.3959932 -6.65767 -0.80306011 8 5 1.681198e+09
4.3416367 -6.5538712 -1.5184928 1 2 1.681198e+09
nan nan nan 0 3 1.681198e+09
3.0759482 -4.6493773 -1.4833603 3 0 1.681198e+09
4.6601033 -4.8374443 -1.5402694 39 1 1.681198e+09
8.1377354 -12.324315 3.3961172 43 14 1.681198e+09
8.0857077 -8.3885241 3.1082442 56 15 1.681198e+09
3.1918113 -4.8319902 0.90961266 8 12 1.681198e+09
8.0692854 -8.4065647 2.2561967 49 13 1.681198e+09
5.0630474 -7.6724734 0.80117917 9 10 1.681198e+09
4.6493855 -4.8617506 0.82053596 6 11 1.681198e+09
6.6281791 -10.049047 0.20951614 1 8 1.681198e+09
4.6682239 -4.8899269 0.35248265 3 9 1.681198e+09
5.767695 -8.7506981 -0.54925722 1 6 1.681198e+09
6.6531401 -6.9735913 -0.16763034 7 7 1.681198e+09
3.2168829 -4.8848047 -0.71283495 1 4 1.681198e+09
6.2930241 -6.5942025 -0.79283971 6 5 1.681198e+09
3.0477681 -4.6348634 -1.0694684 21 2 1.681198e+09
6.4103694 -6.7123942 -1.4662317 3 3 1.681198e+09
3.0411534 -4.6318188 -1.4743075 24 0 1.681198e+09
4.6339231 -4.8423176 -1.5369002 39 1 1.681198e+09
8.1440601 -12.428043 3.4168937 43 14 1.681198e+09
8.0881195 -8.4498329 3.120522 54 15 1.681198e+09
3.1722186 -4.8389711 0.90883219 8 12 1.681198e+09
8.0669937 -8.4630919 2.2638223 50 13 1.681198e+09
5.0307536 -7.6788025 0.80008966 12 10 1.681198e+09
4.6272559 -4.8725557 0.81962323 4 11 1.681198e+09
6.640965 -10.145327 0.21104321 1 8 1.681198e+09
4.6270623 -4.8808432 0.35065088 2 9 1.681198e+09
5.7398472 -8.7749577 -0.54951978 1 6 1.681198e+09
6.5938525 -6.9575343 -0.1667141 1 7 1.681198e+09
3.2418766 -4.9604077 -0.72226638 1 4 1.681198e+09
6.3076773 -6.6558805 -0.79762375 6 5 1.681198e+09
3.0262079 -4.6372509 -1.0675638 28 2 1.681198e+09
6.4310985 -6.7812886 -1.4764111 1 3 1.681198e+09
3.0218227 -4.6358075 -1.4723676 22 0 1.681198e+09
4.5985184 -4.8390517 -1.5307235 37 1 1.681198e+09
8.1444483 -12.523796 3.4354241 40 14 1.681198e+09
8.0918655 -8.51301 3.1334462 56 15 1.681198e+09
3.1418481 -4.8293114 0.90492994 8 12 1.681198e+09
8.0711603 -8.5268326 2.2733541 52 13 1.681198e+09
4.9984913 -7.687964 0.79921818 12 10 1.681198e+09
4.5914793 -4.8688331 0.81627661 3 11 1.681198e+09
6.6409073 -10.222951 0.2121776 1 8 1.681198e+09
4.5980101 -4.8842483 0.34973502 2 9 1.681198e+09
5.7254896 -8.8200712 -0.55109507 1 6 1.681198e+09
6.6415114 -7.0569253 -0.1685466 1 7 1.681198e+09
4.7604551 -7.3413186 -1.0684918 8 4 1.681198e+09
6.2485418 -6.6397877 -0.79305714 3 5 1.681198e+09
3.0180032 -4.6601486 -1.0704207 34 2 1.681198e+09
6.4311008 -6.8288498 -1.4818922 1 3 1.681198e+09
2.9912009 -4.6240191 -1.4652548 23 0 1.681198e+09
4.5615206 -4.8338265 -1.5239851 36 1 1.681198e+09
8.1469078 -12.623795 3.4550774 43 14 1.681198e+09
8.0919514 -8.5728045 3.1450779 54 15 1.681198e+09
3.1222939 -4.8361001 0.90414953 8 12 1.681198e+09
8.0732956 -8.5889168 2.2824094 56 13 1.681198e+09
4.9864726 -7.7283874 0.801615 10 10 1.681198e+09
4.564271 -4.87397 0.81445116 3 11 1.681198e+09
6.652575 -10.319609 0.21370471 1 8 1.681198e+09
6.7119284 -7.1767035 0.51315403 3 9 1.681198e+09
5.6757426 -8.8106174 -0.54925722 1 6 1.681198e+09
6.6241398 -7.0903492 -0.16876477 6 7 1.681198e+09
4.7616482 -7.3996301 -1.0745766 1 4 1.681198e+09
6.2122569 -6.6499119 -0.79153496 4 5 1.681198e+09
3.0083494 -4.6809797 -1.0728016 36 2 1.681198e+09
6.3802257 -6.8224154 -1.475628 1 3 1.681198e+09
2.962501 -4.6166558 -1.4594351 25 0 1.681198e+09
4.5371056 -4.8434057 -1.5217389 35 1 1.681198e+09
8.1461411 -12.719859 3.4736078 40 14 1.681198e+09
8.0966749 -8.6379862 3.1586483 54 15 1.681198e+09
3.0947418 -4.8303323 0.90102774 7 12 1.681198e+09
8.0734205 -8.6493273 2.2909882 53 13 1.681198e+09
4.9607973 -7.7508068 0.80205071 9 10 1.681198e+09
4.5337014 -4.8753452 0.81201726 2 11 1.681198e+09
6.641634 -10.386044 0.21457733 1 8 1.681198e+09
6.695776 -7.2122288 0.51393908 3 9 1.681198e+09
4.5682387 -7.1482177 -0.44423673 1 6 1.681198e+09
6.5704331 -7.0822897 -0.16802303 6 7 1.681198e+09
3.1274853 -4.8984141 -0.70827132 1 4 1.681198e+09
6.2008691 -6.6843305 -0.79305714 2 5 1.681198e+09
2.9853964 -4.6811047 -1.0704207 31 2 1.681198e+09
6.3378792 -6.8247523 -1.4713213 3 3 1.681198e+09
2.9346998 -4.6086311 -1.4536155 28 0 1.681198e+09
4.5002465 -4.8378234 -1.5150007 34 1 1.681198e+09
8.150403 -12.829832 3.4955075 40 14 1.681198e+09
8.0929403 -8.69765 3.1696339 56 15 1.681198e+09
3.0770171 -4.8416424 0.90102774 7 12 1.681198e+09
8.071702 -8.7112513 2.2995667 54 13 1.681198e+09
4.9510646 -7.7954097 0.80488324 1 10 1.681198e+09
4.4998088 -4.8729229 0.80897486 2 11 1.681198e+09
6.6495252 -10.478818 0.21601714 1 8 1.681198e+09
6.6908765 -7.257575 0.51550913 3 9 1.681198e+09
4.5753374 -7.214726 -0.44738731 1 6 1.681198e+09
6.2389674 -6.7725768 -0.16012582 10 7 1.681198e+09
3.0785096 -4.8589845 -0.70096952 1 4 1.681198e+09
6.1639929 -6.6912885 -0.79131752 2 5 1.681198e+09
2.9598556 -4.6769767 -1.0670877 29 2 1.681198e+09
6.3039694 -6.8359485 -1.4689723 4 3 1.681198e+09
2.9134371 -4.6106796 -1.4510289 31 0 1.681198e+09
4.4767137 -4.8463492 -1.5127546 32 1 1.681198e+09
8.1571836 -12.935098 3.5168455 40 14 1.681198e+09
8.0968523 -8.7598963 3.1825578 54 15 1.681198e+09
3.0517259 -4.8371978 0.89829612 6 12 1.681198e+09
8.0776873 -8.7758751 2.3095753 52 13 1.681198e+09
6.7597408 -10.726904 1.1062243 2 10 1.681198e+09
4.4743805 -4.8794613 0.80745363 2 11 1.681198e+09
6.6413794 -10.543114 0.21688977 32 8 1.681198e+09
4.4720097 -4.8853979 0.34528646 2 9 1.681198e+09
4.6059012 -7.3164921 -0.45276961 9 6 1.681198e+09
6.1832147 -6.7592859 -0.15929683 12 7 1.681198e+09
2.9527817 -4.6947913 -0.67571759 2 4 1.681198e+09
6.0172825 -6.5757904 -0.77522588 1 5 1.681198e+09
2.9317706 -4.6685705 -1.0628021 28 2 1.681198e+09
6.2617168 -6.8378901 -1.4646655 6 3 1.681198e+09
2.8883495 -4.6064968 -1.4465026 32 0 1.681198e+09
4.4474316 -4.8468175 -1.5082623 28 1 1.681198e+09
8.1597862 -13.039908 3.537622 42 14 1.681198e+09
8.1021681 -8.8272333 3.1967742 56 15 1.681198e+09
3.034822 -4.8478203 0.89829612 6 12 1.681198e+09
8.0735073 -8.8329926 2.3172007 53 13 1.681198e+09
6.651505 -10.633123 1.0942403 16 10 1.681198e+09
4.4389291 -4.8748808 0.80410701 2 11 1.681198e+09
6.6455998 -10.631947 0.21824233 40 8 1.681198e+09
6.718627 -7.3878779 0.52152783 3 9 1.681198e+09
4.572401 -7.3198199 -0.45198199 10 6 1.681198e+09
6.1444483 -6.764184 -0.15890415 12 7 1.681198e+09
2.904861 -4.6545372 -0.66841584 6 4 1.681198e+09
5.9897904 -6.5941157 -0.77479106 2 5 1.681198e+09
2.9011865 -4.6558595 -1.0575643 28 2 1.681198e+09
6.2261748 -6.8469238 -1.461925 4 3 1.681198e+09
2.8684273 -4.6103983 -1.4445628 31 0 1.681198e+09
4.4230704 -4.8558865 -1.5060163 23 1 1.681198e+09
8.1617575 -13.144893 3.5583985 40 14 1.681198e+09
8.1006012 -8.887579 3.208406 56 15 1.681198e+09
3.0152771 -4.8541884 0.89751571 6 12 1.681198e+09
8.0772762 -8.8992682 2.3272092 53 13 1.681198e+09
6.5494761 -10.555843 1.0837816 1 10 1.681198e+09
4.4135575 -4.8811479 0.80258578 2 11 1.681198e+09
6.6197548 -10.677479 0.21867864 31 8 1.681198e+09
6.7182837 -7.442091 0.52362126 3 9 1.681198e+09
4.5402842 -7.3280396 -0.45145687 8 6 1.681198e+09
6.1057229 -6.7688937 -0.15851146 12 7 1.681198e+09
2.8760338 -4.6461601 -0.66567767 9 4 1.681198e+09
5.9500446 -6.5964985 -0.77261645 4 5 1.681198e+09
2.8771772 -4.6534309 -1.0547073 28 2 1.681198e+09
6.1923022 -6.857625 -1.4595758 6 3 1.681198e+09
2.8459768 -4.6101065 -1.4413296 32 0 1.681198e+09
4.3864679 -4.8496299 -1.4992778 14 1 1.681198e+09
8.1595039 -13.2494 3.5786135 40 14 1.681198e+09
8.1003923 -8.9530134 3.2213302 50 15 1.681198e+09
2.9896975 -4.852591 0.89517432 9 12 1.681198e+09
8.080761 -8.9689121 2.3376944 52 13 1.681198e+09
6.5608883 -10.657118 1.0918436 1 10 1.681198e+09
4.3790498 -4.8788371 0.79954338 2 11 1.681198e+09
6.598156 -10.72607 0.21920221 9 8 1.681198e+09
6.7089372 -7.4840794 0.52492964 3 9 1.681198e+09
4.4963784 -7.3140645 -0.44961902 7 6 1.681198e+09
6.0570283 -6.7622499 -0.15785702 13 7 1.681198e+09
2.85201 -4.6434822 -0.66385227 10 4 1.681198e+09
5.9037061 -6.5912681 -0.76957208 4 5 1.681198e+09
2.8395844 -4.6304636 -1.0470886 28 2 1.681198e+09
6.1291995 -6.8380051 -1.4505709 8 3 1.681198e+09
2.8260851 -4.6138334 -1.4393898 32 0 1.681198e+09
4.3646259 -4.8594785 -1.4975934 10 1 1.681198e+09
8.1652737 -13.363035 3.6016362 42 14 1.681198e+09
8.1013861 -9.0171518 3.2342541 54 15 1.681198e+09
2.9688787 -4.8566756 0.89400369 6 12 1.681198e+09
8.0772333 -9.0281458 2.3457963 52 13 1.681198e+09
6.5353284 -10.699084 1.0938046 1 10 1.681198e+09
4.3504267 -4.8811345 0.79741371 2 11 1.681198e+09
6.5893188 -10.795981 0.22016209 8 8 1.681198e+09
6.7093453 -7.5372767 0.52702308 3 9 1.681198e+09
4.4591231 -7.3105311 -0.44843754 7 6 1.681198e+09
6.0184264 -6.7665496 -0.15746433 15 7 1.681198e+09
2.8448179 -4.6682448 -0.66598195 4 4 1.681198e+09
5.880662 -6.6118355 -0.76957208 3 5 1.681198e+09
2.7966282 -4.5963092 -1.0370891 36 2 1.681198e+09
6.1726375 -6.9349442 -1.4666232 1 3 1.681198e+09
2.803695 -4.6133494 -1.4361566 35 0 1.681198e+09
4.341145 -4.8674159 -1.4953471 8 1 1.681198e+09
8.1665611 -13.470622 3.6229739 40 14 1.681198e+09
8.1020298 -9.0814056 3.2471783 53 15 1.681198e+09
2.9442282 -4.8543386 0.89166236 4 12 1.681198e+09
8.0848064 -9.1003036 2.3572347 51 13 1.681198e+09
6.4979424 -10.721832 1.0938046 1 10 1.681198e+09
4.3103199 -4.8702922 0.79315436 2 11 1.681198e+09
6.6318512 -10.951491 0.22286721 7 8 1.681198e+09
6.7028461 -7.5830889 0.52859312 3 9 1.681198e+09
4.4141951 -7.2940092 -0.44646838 6 6 1.681198e+09
5.9715919 -6.7612996 -0.1568535 14 7 1.681198e+09
2.8310719 -4.682394 -0.66659039 3 4 1.681198e+09
5.836102 -6.6080666 -0.76674515 2 5 1.681198e+09
2.7881737 -4.6186528 -1.0399462 30 2 1.681198e+09
nan nan nan 0 3 1.681198e+09
2.7850814 -4.6189709 -1.4348633 34 0 1.681198e+09
4.3208952 -4.8788948 -1.4942241 7 1 1.681198e+09
8.1671972 -13.578382 3.6443124 40 14 1.681198e+09
8.1007204 -9.1439657 3.2594562 51 15 1.681198e+09
2.9259925 -4.8624701 0.89127213 6 12 1.681198e+09
8.0871 -9.1671057 2.3672431 52 13 1.681198e+09
2.9551342 -4.9128847 0.49853083 3 10 1.681198e+09
4.2867355 -4.8778572 0.79193735 2 11 1.681198e+09
6.6309071 -11.036716 0.22413252 1 8 1.681198e+09
6.6829262 -7.6139421 0.52911651 4 9 1.681198e+09
4.3797145 -7.2943883 -0.44554946 4 6 1.681198e+09
5.9364104 -6.7689538 -0.15654808 14 7 1.681198e+09
2.8300195 -4.7177877 -0.6702413 2 4 1.681198e+09
5.7899966 -6.6021953 -0.76370078 3 5 1.681198e+09
2.7795966 -4.6409922 -1.0428032 20 2 1.681198e+09
4.3167968 -4.9206886 -1.0324306 1 3 1.681198e+09
2.7726588 -4.6348834 -1.4368032 22 0 1.681198e+09
4.3070583 -4.8976045 -1.4953471 6 1 1.681198e+09
8.1721706 -13.694675 3.6678963 40 14 1.681198e+09
8.1022654 -9.2102537 3.2730265 54 15 1.681198e+09
2.9090018 -4.872654 0.89127213 3 12 1.681198e+09
8.0874071 -9.2321863 2.376775 52 13 1.681198e+09
2.9392426 -4.9253092 0.49874872 2 10 1.681198e+09
4.2591038 -4.8789682 0.78980774 2 11 1.681198e+09
2.9315848 -4.9163818 0.099304192 9 8 1.681198e+09
6.6842074 -7.6692066 0.53134078 7 9 1.681198e+09
2.9365137 -4.928565 -0.29983354 2 6 1.681198e+09
5.8897505 -6.7632551 -0.15593724 17 7 1.681198e+09
nan nan nan 0 4 1.681198e+09
5.6589026 -6.4984612 -0.74934882 8 5 1.681198e+09
2.7754712 -4.6691747 -1.0470886 21 2 1.681198e+09
4.2874675 -4.9200935 -1.0292985 1 3 1.681198e+09
2.771245 -4.6694589 -1.4445628 21 0 1.681198e+09
4.281918 -4.9034395 -1.4925396 4 1 1.681198e+09
8.1751194 -13.803453 3.689796 39 14 1.681198e+09
8.1018858 -9.2716122 3.2853045 51 15 1.681198e+09
2.8852787 -4.869525 0.88893074 4 12 1.681198e+09
8.0938168 -9.3015223 2.3877366 51 13 1.681198e+09
2.9144235 -4.9226789 0.49744141 2 10 1.681198e+09
4.222528 -4.8713188 0.78615683 2 11 1.681198e+09
2.9241724 -4.9411364 0.099609606 2 8 1.681198e+09
6.6211352 -7.647934 0.52833146 12 9 1.681198e+09
2.9480956 -4.9855604 -0.30272159 1 6 1.681198e+09
5.8546548 -6.7705436 -0.15563183 12 7 1.681198e+09
nan nan nan 0 4 1.681198e+09
nan nan nan 0 5 1.681198e+09
2.7728622 -4.7020936 -1.0523264 21 2 1.681198e+09
5.3439426 -6.1740775 -1.2892659 1 3 1.681198e+09
2.7708485 -4.706162 -1.4529688 21 0 1.681198e+09
4.2576466 -4.9084163 -1.4897319 4 1 1.681198e+09
8.1787081 -13.920128 3.7133799 39 14 1.681198e+09
8.1122255 -9.3490705 3.302752 50 15 1.681198e+09
2.8707647 -4.8838258 0.8897112 6 12 1.681198e+09
8.0934038 -9.3668451 2.3972685 52 13 1.681198e+09
2.8678186 -4.8807735 0.49221206 8 10 1.681198e+09
4.2054977 -4.8860288 0.78615683 2 11 1.681198e+09
2.8626354 -4.8758554 0.09808252 9 8 1.681198e+09
6.5797443 -7.6539679 0.52715391 15 9 1.681198e+09
2.8637578 -4.8816729 -0.29576397 1 6 1.681198e+09
5.8114333 -6.7681923 -0.15510826 12 7 1.681198e+09
nan nan nan 0 4 1.681198e+09
nan nan nan 0 5 1.681198e+09
2.7675791 -4.7308125 -1.0566119 22 2 1.681198e+09
5.3320212 -6.2039237 -1.2916149 1 3 1.681198e+09
2.7690117 -4.7408342 -1.4607284 20 0 1.681198e+09
4.2316732 -4.9147639 -1.4869243 4 1 1.681198e+09
8.1803551 -14.034891 3.7364028 39 14 1.681198e+09
8.1126595 -9.4157391 3.3163223 53 15 1.681198e+09
2.8487265 -4.8852825 0.88815033 8 12 1.681198e+09
8.09583 -9.4360027 2.4077537 52 13 1.681198e+09
2.8461509 -4.8847942 0.49155837 8 10 1.681198e+09
6.6587267 -7.7869148 1.2519486 3 11 1.681198e+09
2.8434882 -4.8841543 0.098038889 12 8 1.681198e+09
6.4267993 -7.5318546 0.51707923 1 9 1.681198e+09
2.8483558 -4.8964524 -0.29602653 9 6 1.681198e+09
5.7715454 -6.7694235 -0.15467195 12 7 1.681198e+09
2.8585658 -4.9199324 -0.69336355 9 4 1.681198e+09
4.6172252 -5.4169502 -0.61844105 8 5 1.681198e+09
2.7645915 -4.7637982 -1.0618497 20 2 1.681198e+09
5.3087287 -6.2206202 -1.2912235 1 3 1.681198e+09
2.7657561 -4.7734594 -1.4678413 21 0 1.681198e+09
4.241426 -4.9609637 -1.4964702 2 1 1.681198e+09
8.1776104 -14.14915 3.7588634 40 14 1.681198e+09
8.1110725 -9.4839401 3.3298924 51 15 1.681198e+09
2.8246245 -4.8850002 0.88619918 7 12 1.681198e+09
8.0898457 -9.4992332 2.4163325 50 13 1.681198e+09
2.8465211 -4.9248919 0.49460882 3 10 1.681198e+09
4.1359315 -4.8736711 0.77946353 2 11 1.681198e+09
2.8364177 -4.9113698 0.098387934 16 8 1.681198e+09
6.4505262 -7.6132679 0.52113527 1 9 1.681198e+09
2.8437181 -4.9279928 -0.29733929 6 6 1.681198e+09
5.728488 -6.766645 -0.15414837 6 7 1.681198e+09
2.8500438 -4.944932 -0.69549322 1 4 1.681198e+09
4.5870171 -5.4197345 -0.61691886 8 5 1.681198e+09
2.7577362 -4.7904377 -1.065659 21 2 1.681198e+09
5.494638 -6.4838858 -1.3421206 10 3 1.681198e+09
2.7611041 -4.8040257 -1.4743075 21 0 1.681198e+09
4.2477522 -5.0035791 -1.5048932 2 1 1.681198e+09
8.1827536 -14.267065 3.7830093 38 14 1.681198e+09
8.1092987 -9.5457439 3.3421702 49 15 1.681198e+09
2.8059533 -4.8900557 0.88541871 3 12 1.681198e+09
8.0979424 -9.572835 2.4282472 51 13 1.681198e+09
2.8268368 -4.9304762 0.49417308 2 10 1.681198e+09
4.0996904 -4.8653212 0.77581269 9 11 1.681198e+09
6.6797724 -11.660089 0.2339495 10 8 1.681198e+09
4.0865788 -4.8583465 0.33089405 8 9 1.681198e+09
5.3382888 -9.3252745 -0.5631724 1 6 1.681198e+09
4.0342798 -4.8013482 -0.10885938 1 7 1.681198e+09
nan nan nan 0 4 1.681198e+09
nan nan nan 0 5 1.681198e+09
2.755594 -4.8256149 -1.0713731 22 2 1.681198e+09
5.4656091 -6.4954724 -1.3405546 10 3 1.681198e+09
2.7586629 -4.8388143 -1.4820671 24 0 1.681198e+09
4.2405667 -5.0288048 -1.5082623 2 1 1.681198e+09
8.1846924 -14.386597 3.8071549 39 14 1.681198e+09
8.1148748 -9.6201277 3.3583255 53 15 1.681198e+09
2.7864251 -4.8955274 0.88463837 4 12 1.681198e+09
8.0944815 -9.6367378 2.4373026 52 13 1.681198e+09
2.7993929 -4.9203382 0.49221206 2 10 1.681198e+09
4.0683389 -4.8624849 0.77307451 7 11 1.681198e+09
6.6773052 -11.750711 0.23530206 14 8 1.681198e+09
4.0856128 -4.8917317 0.33220246 8 9 1.681198e+09
5.1541209 -9.0767984 -0.5470255 1 6 1.681198e+09
4.0407786 -4.8415508 -0.10947022 3 7 1.681198e+09
nan nan nan 0 4 1.681198e+09
4.0277314 -4.8259606 -0.54581124 2 5 1.681198e+09
2.7568662 -4.8672419 -1.0785155 2 2 1.681198e+09
5.3842869 -6.4444346 -1.3260685 1 3 1.681198e+09
2.7663703 -4.8899813 -1.4949995 35 0 1.681198e+09
4.2198572 -5.0398436 -1.5071393 3 1 1.681198e+09
7.7777147 -13.782796 3.6398201 28 14 1.681198e+09
8.1122732 -9.6854134 3.3712494 53 15 1.681198e+09
2.7717462 -4.9095249 0.88541871 2 12 1.681198e+09
8.0985346 -9.7101526 2.4487407 56 13 1.681198e+09
2.7846475 -4.9344182 0.49264783 2 10 1.681198e+09
4.0338836 -4.8556733 0.76972783 2 11 1.681198e+09
6.6853299 -11.861055 0.2370473 16 8 1.681198e+09
6.7035623 -8.0787697 0.54834998 1 9 1.681198e+09
5.2338624 -9.2926998 -0.55897158 9 6 1.681198e+09
nan nan nan 0 7 1.681198e+09
4.9857922 -8.8629274 -1.2425172 1 4 1.681198e+09
4.0347195 -4.8687377 -0.54907304 6 5 1.681198e+09
3.8367674 -6.8307033 -1.5132549 1 2 1.681198e+09
4.0665936 -4.9037094 -1.0046329 8 3 1.681198e+09
2.74456 -4.8911824 -1.492413 28 0 1.681198e+09
4.1149497 -4.9497013 -1.4756937 6 1 1.681198e+09
7.6974149 -13.758057 3.6257818 30 14 1.681198e+09
8.1153345 -9.7614927 3.3874047 50 15 1.681198e+09
2.741679 -4.8980999 0.88151658 1 12 1.681198e+09
8.0973349 -9.7813463 2.4592259 46 13 1.681198e+09
2.7592506 -4.9315481 0.49134049 1 10 1.681198e+09
4.0034189 -4.8551188 0.76729393 2 11 1.681198e+09
6.6759462 -11.946582 0.23826897 13 8 1.681198e+09
6.6897874 -8.1225481 0.54965836 1 9 1.681198e+09
5.1754313 -9.2682219 -0.55634606 6 6 1.681198e+09
6.621984 -8.0460062 -0.18128686 4 7 1.681198e+09
4.9883156 -8.9439936 -1.2513402 1 4 1.681198e+09
4.4538932 -5.4140491 -0.60909057 7 5 1.681198e+09
3.7997699 -6.8232751 -1.5084933 2 2 1.681198e+09
6.0275164 -7.3192067 -1.4979445 2 3 1.681198e+09
2.7184012 -4.8864341 -1.4878868 23 0 1.681198e+09
4.0579839 -4.9178028 -1.4616555 8 1 1.681198e+09
7.6351619 -13.759279 3.6190434 31 14 1.681198e+09
8.1227398 -9.8400335 3.4048522 54 15 1.681198e+09
2.7293563 -4.9162779 0.88307738 2 12 1.681198e+09
8.1021185 -9.8569355 2.4711406 52 13 1.681198e+09
6.5948758 -11.889027 1.1864074 4 10 1.681198e+09
3.9770069 -4.8575501 0.76546854 2 11 1.681198e+09
6.6802397 -12.052895 0.23992693 16 8 1.681198e+09
6.6866946 -8.1767616 0.55175179 1 9 1.681198e+09
5.081378 -9.174839 -0.54965103 8 6 1.681198e+09
6.5606256 -8.0284405 -0.18037061 12 7 1.681198e+09
2.7585058 -4.9852333 -0.69427627 1 4 1.681198e+09
4.419199 -5.4102845 -0.60691601 10 5 1.681198e+09
2.7819872 -5.0359745 -1.1094663 2 2 1.681198e+09
5.4107718 -6.6179466 -1.349951 1 3 1.681198e+09
2.6978297 -4.8895488 -1.4859468 21 0 1.681198e+09
4.0948782 -4.9978528 -1.4813091 6 1 1.681198e+09
7.5765176 -13.766638 3.6139898 28 14 1.681198e+09
8.1205053 -9.9075394 3.4184225 50 15 1.681198e+09
2.7026556 -4.9084673 0.87995559 2 12 1.681198e+09
8.1033678 -9.928874 2.4821024 49 13 1.681198e+09
6.6205459 -12.034181 1.1986094 6 10 1.681198e+09
3.9459269 -4.8540845 0.76273036 2 11 1.681198e+09
6.6898913 -12.170339 0.24180308 20 8 1.681198e+09
6.6644092 -8.2078028 0.55227518 2 9 1.681198e+09
5.0096693 -9.1203041 -0.54531896 9 6 1.681198e+09
6.5105 -8.024127 -0.17975979 10 7 1.681198e+09
4.9520025 -9.0264664 -1.2580335 9 4 1.681198e+09
4.3971467 -5.4218106 -0.60648108 12 5 1.681198e+09
3.753221 -6.8517895 -1.5089694 3 2 1.681198e+09
4.546731 -5.6020579 -1.1385318 8 3 1.681198e+09
2.6807456 -4.8989358 -1.4859468 16 0 1.681198e+09
4.1481881 -5.0989947 -1.5071393 3 1 1.681198e+09
7.5120802 -13.763062 3.6061285 30 14 1.681198e+09
8.1239996 -9.9826403 3.4345775 46 15 1.681198e+09
2.6855054 -4.9178715 0.87995559 2 12 1.681198e+09
8.1057587 -10.002847 2.4935405 49 13 1.681198e+09
6.6285863 -12.149046 1.2077607 4 10 1.681198e+09
3.9211595 -4.8581791 0.76120913 2 11 1.681198e+09
6.6916251 -12.274824 0.24341741 22 8 1.681198e+09
6.6937246 -8.3029041 0.55711621 2 9 1.681198e+09
4.7509561 -8.7211504 -0.52037656 8 6 1.681198e+09
6.463623 -8.0234537 -0.1792362 10 7 1.681198e+09
4.7758269 -8.777751 -1.2209162 1 4 1.681198e+09
4.4407258 -5.5146775 -0.61517924 10 5 1.681198e+09
3.7175703 -6.8432808 -1.5042078 1 2 1.681198e+09
4.5131941 -5.6006007 -1.1350082 9 3 1.681198e+09
2.6567214 -4.8955264 -1.4820671 12 0 1.681198e+09
4.1318965 -5.1153374 -1.5077008 3 1 1.681198e+09
7.585731 -14.014165 3.6650887 22 14 1.681198e+09
8.1194744 -10.048494 3.4475017 52 15 1.681198e+09
2.65657 -4.905498 0.87605333 2 12 1.681198e+09
8.109271 -10.07887 2.5054555 52 13 1.681198e+09
6.6359038 -12.264112 1.216912 4 10 1.681198e+09
3.8855391 -4.8486147 0.75755823 2 11 1.681198e+09
6.6903353 -12.375073 0.24494451 27 8 1.681198e+09
6.6584582 -8.3184261 0.55659288 3 9 1.681198e+09
4.6991315 -8.6981401 -0.5180136 8 6 1.681198e+09
6.4293284 -8.0381622 -0.17906168 12 7 1.681198e+09
4.8075886 -8.9101219 -1.2370409 1 4 1.681198e+09
4.4401269 -5.5534759 -0.61778873 9 5 1.681198e+09
3.6843522 -6.8389287 -1.5003985 1 2 1.681198e+09
4.481266 -5.6009049 -1.131876 9 3 1.681198e+09
2.638473 -4.9026437 -1.4814204 10 0 1.681198e+09
4.1048627 -5.1183333 -1.5043316 4 1 1.681198e+09
7.6127954 -14.182233 3.7021496 28 14 1.681198e+09
8.1266842 -10.129504 3.4655952 47 15 1.681198e+09
2.6441011 -4.9234447 0.87761432 2 12 1.681198e+09
8.1077528 -10.149285 2.5159404 47 13 1.681198e+09
6.6354351 -12.366209 1.2247561 4 10 1.681198e+09
3.8562195 -4.8466234 0.75512433 2 11 1.681198e+09
6.6943293 -12.486476 0.24668974 28 8 1.681198e+09
6.6216097 -8.3318481 0.55593866 3 9 1.681198e+09
4.6687407 -8.7144899 -0.5180136 10 6 1.681198e+09
6.3779001 -8.0312042 -0.17840722 10 7 1.681198e+09
4.8536973 -9.0712643 -1.2571207 1 4 1.681198e+09
4.4067674 -5.5513945 -0.61583161 9 5 1.681198e+09
3.6593013 -6.8495827 -1.4999224 1 2 1.681198e+09
4.4463177 -5.5971894 -1.1279608 7 3 1.681198e+09
2.6213436 -4.9118242 -1.4814204 10 0 1.681198e+09
4.0778584 -5.1212025 -1.5009625 4 1 1.681198e+09
7.5643873 -14.210869 3.7027109 29 14 1.681198e+09
8.1289091 -10.205022 3.4817505 51 15 1.681198e+09
2.6199386 -4.9195647 0.87527299 2 12 1.681198e+09
8.1119452 -10.227504 2.528332 50 13 1.681198e+09
6.6097732 -12.422278 1.2280245 3 10 1.681198e+09
3.8324263 -4.8496556 0.7536031 2 11 1.681198e+09
6.6882434 -12.5804 0.24808595 36 8 1.681198e+09
6.5971284 -8.3607893 0.55633122 3 9 1.681198e+09
4.6359515 -8.726325 -0.51775104 10 6 1.681198e+09
6.3281474 -8.0259476 -0.17779638 9 7 1.681198e+09
4.8871121 -9.2109137 -1.2741581 9 4 1.681198e+09
4.4722214 -5.6742702 -0.62779164 23 5 1.681198e+09
3.6434598 -6.874692 -1.5027794 1 2 1.681198e+09
4.4246702 -5.6080279 -1.1271778 3 3 1.681198e+09
2.604182 -4.9209437 -1.4814204 9 0 1.681198e+09
4.0599575 -5.135406 -1.5009625 3 1 1.681198e+09
7.5058479 -14.214332 3.6970956 27 14 1.681198e+09
8.1325026 -10.279258 3.4979055 49 15 1.681198e+09
2.604763 -4.9304094 0.8756631 2 12 1.681198e+09
8.1114111 -10.296748 2.5388172 47 13 1.681198e+09
2.6123765 -4.9490285 0.48654693 1 10 1.681198e+09
3.8078086 -4.8532486 0.75208193 2 11 1.681198e+09
6.6499853 -12.609142 0.24821684 15 8 1.681198e+09
6.5570393 -8.3669052 0.55528444 3 9 1.681198e+09
4.5709167 -8.6731768 -0.51368147 7 6 1.681198e+09
6.2846756 -8.0283117 -0.17736006 9 7 1.681198e+09
4.8842697 -9.2797737 -1.2814599 9 4 1.681198e+09
4.4963994 -5.7439532 -0.63388038 97 5 1.681198e+09
3.6160169 -6.8808498 -1.5013508 1 2 1.681198e+09
4.3867807 -5.6001253 -1.1224797 3 3 1.681198e+09
2.5735316 -4.9043388 -1.4736608 7 0 1.681198e+09
4.0444107 -5.1507564 -1.501524 4 1 1.681198e+09
8.2312107 -15.721045 4.0823035 43 14 1.681198e+09
8.1308994 -10.351254 3.5127685 46 15 1.681198e+09
2.5783753 -4.9219699 0.87254131 2 12 1.681198e+09
8.111722 -10.371382 2.5502553 49 13 1.681198e+09
2.5855591 -4.9378047 0.48458594 2 10 1.681198e+09
3.7801602 -4.8528152 0.74995226 3 11 1.681198e+09
6.5966659 -12.614556 0.24786778 10 8 1.681198e+09
6.5354638 -8.3995905 0.55593866 4 9 1.681198e+09
4.5221205 -8.6536732 -0.51158106 8 6 1.681198e+09
6.2366619 -8.0245523 -0.17679287 9 7 1.681198e+09
4.8656201 -9.3231668 -1.2851108 2 4 1.681198e+09
4.3606267 -5.6129627 -0.61757129 9 5 1.681198e+09
3.5965106 -6.9021373 -1.5032555 3 2 1.681198e+09
4.3641725 -5.6115074 -1.1216966 3 3 1.681198e+09
2.257853 -4.3390622 -1.3003651 1 0 1.681198e+09
4.0240064 -5.1636243 -1.5009625 4 1 1.681198e+09
8.2234182 -15.840496 4.1058874 49 14 1.681198e+09
8.1363201 -10.432879 3.5308621 47 15 1.681198e+09
2.5600412 -4.9287486 0.8721512 3 12 1.681198e+09
8.1176338 -10.453894 2.5635998 50 13 1.681198e+09
2.5548322 -4.9229279 0.48218915 2 10 1.681198e+09
3.7495222 -4.8483248 0.74721408 3 11 1.681198e+09
6.5319881 -12.60314 0.24716969 12 8 1.681198e+09
6.5687561 -8.5064535 0.56143397 2 9 1.681198e+09
4.5156236 -8.7189655 -0.51446915 10 6 1.681198e+09
6.2101407 -8.0482521 -0.17683649 8 7 1.681198e+09
5.3191824 -10.284352 -1.4153258 1 4 1.681198e+09
4.4506145 -5.7700686 -0.633228 138 5 1.681198e+09
3.5690176 -6.9081073 -1.501827 1 2 1.681198e+09
4.3596606 -5.6462412 -1.1256118 4 3 1.681198e+09
nan nan nan 0 0 1.681198e+09
4.0104337 -5.1834168 -1.502647 4 1 1.681198e+09
8.218791 -15.974514 4.1328411 42 14 1.681198e+09
8.132041 -10.506544 3.5457249 46 15 1.681198e+09
2.532923 -4.9205308 0.86902928 2 12 1.681198e+09
8.1092386 -10.522442 2.5731318 50 13 1.681198e+09
2.5364935 -4.9296007 0.48197123 2 10 1.681198e+09
3.7945943 -4.9420328 0.7596879 6 11 1.681198e+09
6.5085139 -12.665885 0.24795504 7 8 1.681198e+09
6.6393309 -8.6600542 0.57006937 3 9 1.681198e+09
4.4828806 -8.7302332 -0.51420659 12 6 1.681198e+09
6.2017817 -8.0956678 -0.1774037 7 7 1.681198e+09
4.5565457 -8.885191 -1.2200035 1 4 1.681198e+09
4.4228692 -5.7756867 -0.63214076 255 5 1.681198e+09
3.5381718 -6.9074159 -1.49897 1 2 1.681198e+09
4.356463 -5.68297 -1.1299183 4 3 1.681198e+09
1.4505256 -2.834404 -0.84320045 6 0 1.681198e+09
3.9863746 -5.1896601 -1.5004009 4 1 1.681198e+09
8.2344141 -16.136225 4.1676559 40 14 1.681198e+09
8.1339684 -10.581307 3.5618799 50 15 1.681198e+09
2.5143478 -4.9245048 0.86824894 3 12 1.681198e+09
8.1145916 -10.60188 2.5859997 52 13 1.681198e+09
2.5170085 -4.9339876 0.48153549 2 10 1.681198e+09
3.6824563 -4.8309917 0.74052083 3 11 1.681198e+09
6.4971161 -12.747532 0.24913308 1 8 1.681198e+09
6.6136031 -8.6859961 0.5703311 3 9 1.681198e+09
4.4459767 -8.729476 -0.51328766 9 6 1.681198e+09
6.2401028 -8.2047777 -0.17932346 1 7 1.681198e+09
4.5225582 -8.8914042 -1.2187865 1 4 1.681198e+09
4.4006743 -5.7863593 -0.63170582 29 5 1.681198e+09
3.5151496 -6.9219131 -1.4994462 1 2 1.681198e+09
4.3231292 -5.6804671 -1.1263947 4 3 1.681198e+09
1.4908305 -2.9385431 -0.87294525 12 0 1.681198e+09
3.9721012 -5.2067227 -1.501524 4 1 1.681198e+09
8.2297153 -16.26704 4.194047 42 14 1.681198e+09
8.1350946 -10.659537 3.5786812 57 15 1.681198e+09
2.4937992 -4.9266405 0.86707824 3 12 1.681198e+09
8.1161575 -10.680933 2.5983913 52 13 1.681198e+09
2.497262 -4.9356394 0.48088181 2 10 1.681198e+09
3.6745636 -4.8556824 0.74234623 4 11 1.681198e+09
6.5134397 -12.890615 0.25148916 1 8 1.681198e+09
6.6404819 -8.7846832 0.57530296 4 9 1.681198e+09
4.397481 -8.7092829 -0.51118726 8 6 1.681198e+09
6.3093863 -8.3561325 -0.18215948 2 7 1.681198e+09
2.5090272 -4.9739957 -0.67875999 1 4 1.681198e+09
4.3749318 -5.7964888 -0.63105345 17 5 1.681198e+09
3.4942753 -6.9407177 -1.5008746 1 2 1.681198e+09
nan nan nan 0 3 1.681198e+09
1.4816478 -2.9458871 -0.87359184 12 0 1.681198e+09
3.9500468 -5.2173638 -1.5004009 4 1 1.681198e+09
8.2340317 -16.417618 4.225493 40 14 1.681198e+09
8.1386919 -10.741754 3.5967751 47 15 1.681198e+09
2.461091 -4.9044113 0.86161512 3 12 1.681198e+09
8.1143131 -10.756207 2.6098294 52 13 1.681198e+09
2.4713466 -4.9291725 0.47935659 2 10 1.681198e+09
3.6396878 -4.8446851 0.73869532 4 11 1.681198e+09
6.4952388 -12.972517 0.25262356 1 8 1.681198e+09
6.6532102 -8.8688583 0.57922816 3 9 1.681198e+09
4.3610635 -8.7164106 -0.51066214 8 6 1.681198e+09
6.302681 -8.4080963 -0.18281394 1 7 1.681198e+09
2.4885623 -4.9787178 -0.67815155 2 4 1.681198e+09
4.3531771 -5.8097324 -0.63083601 16 5 1.681198e+09
2.4797332 -4.9675193 -1.0704207 1 2 1.681198e+09
4.5028329 -6.0027041 -1.1843393 9 3 1.681198e+09
1.4745851 -2.9575267 -0.87553179 12 0 1.681198e+09
3.9259508 -5.2233353 -1.4981549 4 1 1.681198e+09
8.2355871 -16.572042 4.2575002 42 14 1.681198e+09
8.1341162 -10.817824 3.6122839 46 15 1.681198e+09
2.4463952 -4.9200335 0.86278576 3 12 1.681198e+09
8.1189795 -10.844797 2.6241274 46 13 1.681198e+09
2.4485865 -4.9266152 0.47826713 2 10 1.681198e+09
3.6159682 -4.85004 0.73747838 4 11 1.681198e+09
6.4776926 -13.051088 0.25371435 1 8 1.681198e+09
6.652051 -8.9320612 0.58184493 3 9 1.681198e+09
4.3261752 -8.7226334 -0.51013708 8 6 1.681198e+09
6.2882242 -8.4500923 -0.18325026 1 7 1.681198e+09
2.45135 -4.9473457 -0.67267519 3 4 1.681198e+09
4.3313832 -5.8228951 -0.63061857 15 5 1.681198e+09
2.4658592 -4.9853754 -1.0723253 2 2 1.681198e+09
4.4512887 -5.9795732 -1.1765089 7 3 1.681198e+09
1.4578393 -2.9496629 -0.87165201 14 0 1.681198e+09
3.8945694 -5.2194443 -1.4931011 4 1 1.681198e+09
8.2454987 -16.738373 4.2928762 40 14 1.681198e+09
8.1396646 -10.904198 3.63167 46 15 1.681198e+09
2.4379344 -4.9462652 0.86590749 3 12 1.681198e+09
8.1132946 -10.916394 2.6346126 47 13 1.681198e+09
2.4280751 -4.9284296 0.47761348 2 10 1.681198e+09
3.5945833 -4.8566518 0.73656565 2 11 1.681198e+09
6.6770077 -13.571566 0.26340044 1 8 1.681198e+09
6.6728082 -9.0254688 0.58642435 3 9 1.681198e+09
4.2990041 -8.7444029 -0.51053089 4 6 1.681198e+09
6.1204791 -8.2850742 -0.17919257 1 7 1.681198e+09
5.1255946 -10.440272 -1.4217148 2 4 1.681198e+09
4.3169537 -5.8459888 -0.63148838 13 5 1.681198e+09
3.4061482 -6.9488745 -1.4946845 1 2 1.681198e+09
4.4112959 -5.9692717 -1.1714193 4 3 1.681198e+09
1.4422277 -2.9438872 -0.86841887 14 0 1.681198e+09
3.8777776 -5.2349629 -1.4936626 4 1 1.681198e+09
8.2468672 -16.889648 4.3243217 37 14 1.681198e+09
8.137516 -10.981039 3.647825 46 15 1.681198e+09
nan nan nan 0 12 1.681198e+09
8.1188717 -11.003878 2.6489103 45 13 1.681198e+09
2.4130409 -4.9413514 0.47804922 3 10 1.681198e+09
3.5593336 -4.8425679 0.73261058 2 11 1.681198e+09
6.6471195 -13.63074 0.26409853 1 8 1.681198e+09
6.681169 -9.1030321 0.58995706 3 9 1.681198e+09
nan nan nan 0 6 1.681198e+09
6.202455 -8.4575148 -0.1824649 8 7 1.681198e+09
5.0608988 -10.400084 -1.4138044 4 4 1.681198e+09
4.3068376 -5.8750763 -0.63301051 12 5 1.681198e+09
3.3991721 -6.9932442 -1.501827 1 2 1.681198e+09
4.3622346 -5.9440727 -1.1635889 3 3 1.681198e+09
1.4340502 -2.9532495 -0.86971211 20 0 1.681198e+09
3.8378117 -5.2190442 -1.4852396 4 1 1.681198e+09
8.2598057 -17.059431 4.3608208 39 14 1.681198e+09
8.1483173 -11.072136 3.6691499 44 15 1.681198e+09
nan nan nan 0 12 1.681198e+09
8.1200676 -11.082198 2.6613019 46 13 1.681198e+09
2.382766 -4.9228406 0.47543457 3 10 1.681198e+09
3.5424085 -4.8549628 0.73261058 2 11 1.681198e+09
6.5648923 -13.576192 0.26261508 1 8 1.681198e+09
6.6906714 -9.1795959 0.59348977 3 9 1.681198e+09
4.5553498 -9.4276505 -0.5487321 1 6 1.681198e+09
6.2170568 -8.5397205 -0.18377383 1 7 1.681198e+09
5.0253048 -10.414574 -1.4135003 4 4 1.681198e+09
4.2917318 -5.8953638 -0.63366294 10 5 1.681198e+09
3.3598351 -6.9741092 -1.4951607 6 2 1.681198e+09
nan nan nan 0 3 1.681198e+09
1.4226866 -2.9560609 -0.86906546 12 0 1.681198e+09
3.8233595 -5.2356744 -1.4863628 4 1 1.681198e+09
8.260272 -17.213354 4.392828 38 14 1.681198e+09
8.1466761 -11.1512 3.6859512 44 15 1.681198e+09
nan nan nan 0 12 1.681198e+09
8.1217728 -11.166033 2.6746464 45 13 1.681198e+09
2.3631973 -4.9239779 0.47478089 3 10 1.681198e+09
3.5079536 -4.8431959 0.72895968 3 11 1.681198e+09
6.4083776 -13.371347 0.25820833 1 8 1.681198e+09
6.6864085 -9.241313 0.5959757 3 9 1.681198e+09
4.4922314 -9.3804436 -0.5450564 1 6 1.681198e+09
6.3512893 -8.7882042 -0.1886605 4 7 1.681198e+09
4.9578834 -10.367127 -1.4046773 2 4 1.681198e+09
4.2817731 -5.9271979 -0.63540256 10 5 1.681198e+09
3.3354702 -6.9857945 -1.4951607 6 2 1.681198e+09
3.5197806 -4.8684568 -0.9470799 1 3 1.681198e+09
1.4102825 -2.9566483 -0.86777228 21 0 1.681198e+09
3.8213151 -5.2733121 -1.4931011 4 1 1.681198e+09
8.2681313 -17.38509 4.4293275 40 14 1.681198e+09
8.1502571 -11.238207 3.7053375 45 15 1.681198e+09
2.3429959 -4.9236555 0.85615194 4 12 1.681198e+09
8.1201162 -11.246034 2.6870377 56 13 1.681198e+09
5.1278982 -10.790455 1.0421648 7 10 1.681198e+09
3.4997272 -4.8674932 0.73078507 2 11 1.681198e+09
6.3443213 -13.36313 0.25759751 1 8 1.681198e+09
6.6874566 -9.3144159 0.59911579 3 9 1.681198e+09
4.4653077 -9.4126358 -0.54597533 1 6 1.681198e+09
6.3497334 -8.8509293 -0.18953311 6 7 1.681198e+09
4.8412633 -10.219274 -1.3821635 3 4 1.681198e+09
4.2639627 -5.9461536 -0.6358375 10 5 1.681198e+09
3.3163111 -7.0084882 -1.4975414 4 2 1.681198e+09
5.549273 -7.7276816 -1.5030342 1 3 1.681198e+09
1.4030459 -2.9681046 -0.86971211 23 0 1.681198e+09
3.8114283 -5.2984781 -1.4964702 4 1 1.681198e+09
8.2728653 -17.560736 4.4663882 38 14 1.681198e+09
8.1457071 -11.318957 3.7221386 44 15 1.681198e+09
2.3270385 -4.9366784 0.8569324 3 12 1.681198e+09
8.1246023 -11.339543 2.7022886 44 13 1.681198e+09
2.3236585 -4.9317493 0.47390935 2 10 1.681198e+09
3.4754999 -4.8695869 0.7292639 2 11 1.681198e+09
6.2806139 -13.349004 0.25689939 1 8 1.681198e+09
6.6795492 -9.3722563 0.60134012 3 9 1.681198e+09
4.4292383 -9.4213858 -0.54558146 2 6 1.681198e+09
6.3275037 -8.885253 -0.18979491 8 7 1.681198e+09
4.8635421 -10.359659 -1.3988967 4 4 1.681198e+09
4.2489629 -5.9691138 -0.63670725 12 5 1.681198e+09
3.2928681 -7.022244 -1.4980177 3 2 1.681198e+09
nan nan nan 0 3 1.681198e+09
1.3916534 -2.9707966 -0.86906546 25 0 1.681198e+09
3.7674024 -5.276083 -1.4863628 4 1 1.681198e+09
8.2805519 -17.729342 4.502326 38 14 1.681198e+09
