# .PCD v0.7 - Point Cloud Data file format
VERSION 0.7
FIELDS x y z intensity ring timestamp
SIZE 4 4 4 4 2 8
TYPE F F F F U F
COUNT 1 1 1 1 1 1
WIDTH 956
HEIGHT 1
VIEWPOINT 0 0 0 1 0 0 0
POINTS 956
DATA ascii
0.28853089 -2.4522681 -0.65179914 38 0 1.681198e+09
1.4966084 -4.8595109 -1.164046 7 1 1.681198e+09
0.57532883 -4.9346576 1.1370928 1 14 1.681198e+09
8.3143444 -26.925053 7.530869 1 15 1.681198e+09
nan nan nan 0 12 1.681198e+09
1.4779878 -4.8350134 0.9751116 50 13 1.681198e+09
0.38816401 -3.3347325 0.2906644 2 10 1.681198e+09
1.4910442 -4.9049268 0.62430102 3 11 1.681198e+09
0.27737498 -2.3860097 0.041318569 113 8 1.681198e+09
1.4920624 -4.9266825 0.26796007 3 9 1.681198e+09
0.27935177 -2.4105012 -0.12576205 16 6 1.681198e+09
1.4863533 -4.9140358 -0.089007266 4 7 1.681198e+09
0.27870551 -2.415966 -0.29389611 13 4 1.681198e+09
2.1527784 -7.1102958 -0.64562291 1 5 1.681198e+09
0.2783708 -2.4241569 -0.46664253 12 2 1.681198e+09
2.5509789 -8.4068384 -1.3875366 6 3 1.681198e+09
0.27888066 -2.4436624 -0.64921266 38 0 1.681198e+09
1.4440848 -4.7482033 -1.1359698 12 1 1.681198e+09
3.0529387 -27.116507 6.281806 24 14 1.681198e+09
8.0415964 -26.384773 7.3712564 1 15 1.681198e+09
nan nan nan 0 12 1.681198e+09
1.4588349 -4.8357005 0.97415841 50 13 1.681198e+09
0.63677025 -5.6525893 0.49460882 3 10 1.681198e+09
1.4752022 -4.9174876 0.62521374 3 11 1.681198e+09
0.26932275 -2.3894472 0.0413622 108 8 1.681198e+09
1.4755734 -4.9342523 0.26809093 3 9 1.681198e+09
0.27038187 -2.4064994 -0.12549949 17 6 1.681198e+09
1.4720608 -4.9287715 -0.089181788 4 7 1.681198e+09
0.2708185 -2.4218566 -0.29450455 13 4 1.681198e+09
2.1315198 -7.1296964 -0.64671022 1 5 1.681198e+09
0.26975325 -2.4276001 -0.46711865 12 2 1.681198e+09
nan nan nan 0 3 1.681198e+09
0.27114019 -2.451822 -0.65115249 38 0 1.681198e+09
1.4275016 -4.7532148 -1.1359698 36 1 1.681198e+09
2.9585297 -27.129419 6.2823672 24 14 1.681198e+09
0.85164547 -2.8441725 0.78513861 9 15 1.681198e+09
0.6521607 -5.9678464 0.94317198 3 12 1.681198e+09
1.4419461 -4.8407631 0.97415841 46 13 1.681198e+09
0.64047325 -5.8701787 0.51356524 3 10 1.681198e+09
1.4601487 -4.9297423 0.62612647 3 11 1.681198e+09
0.2609804 -2.3903725 0.0413622 111 8 1.681198e+09
1.4533775 -4.922617 0.26717505 3 9 1.681198e+09
0.26224831 -2.4099107 -0.12563077 17 6 1.681198e+09
1.4548472 -4.9338799 -0.089181788 4 7 1.681198e+09
0.26130137 -2.4129181 -0.29328761 13 4 1.681198e+09
2.0960219 -7.1012697 -0.64344841 1 5 1.681198e+09
0.26153845 -2.4309671 -0.46759483 12 2 1.681198e+09
2.0917296 -7.077786 -1.1647635 1 3 1.681198e+09
0.2625801 -2.4527535 -0.65115249 38 0 1.681198e+09
1.4067327 -4.7441592 -1.1326005 25 1 1.681198e+09
2.8612576 -27.115355 6.276752 29 14 1.681198e+09
0.84308892 -2.8517578 0.78643107 28 15 1.681198e+09
0.66007119 -6.2426724 0.98648679 2 12 1.681198e+09
0.94718808 -3.2263405 0.64626163 21 13 1.681198e+09
0.64683682 -6.1274886 0.53600782 4 10 1.681198e+09
0.85947466 -2.9440849 0.37178159 8 11 1.681198e+09
0.25237399 -2.3887832 0.041318569 116 8 1.681198e+09
0.86511058 -2.9747369 0.16054054 8 9 1.681198e+09
0.25331524 -2.4058456 -0.12536822 17 6 1.681198e+09
0.8714323 -3.0002189 -0.053927932 8 7 1.681198e+09
0.25339073 -2.418752 -0.29389611 13 4 1.681198e+09
1.4386764 -4.9426022 -0.44643441 1 5 1.681198e+09
0.25297028 -2.4269388 -0.46664253 12 2 1.681198e+09
2.0578458 -7.0491362 -1.1588906 1 3 1.681198e+09
0.25352284 -2.4488511 -0.64985925 38 0 1.681198e+09
1.3922236 -4.7560525 -1.1342851 9 1 1.681198e+09
2.7589514 -27.003521 6.2486758 15 14 1.681198e+09
0.83226621 -2.8499036 0.78513861 39 15 1.681198e+09
0.68677318 -6.7091227 1.0602392 7 12 1.681198e+09
0.85682189 -2.9561553 0.59097672 26 13 1.681198e+09
0.65468889 -6.4171219 0.56128299 4 10 1.681198e+09
0.85333645 -2.9613669 0.37360704 29 11 1.681198e+09
0.24419853 -2.3871202 0.041274939 118 8 1.681198e+09
0.85524118 -2.9775891 0.16054054 13 9 1.681198e+09
0.24533577 -2.4066725 -0.12536822 18 6 1.681198e+09
0.85264611 -2.9744208 -0.053404361 11 7 1.681198e+09
0.24536847 -2.4195793 -0.29389611 13 4 1.681198e+09
0.85213882 -2.9707572 -0.26681688 9 5 1.681198e+09
0.24449714 -2.4278071 -0.46664253 12 2 1.681198e+09
0.8582015 -2.9879694 -0.48743883 6 3 1.681198e+09
0.24545038 -2.4545269 -0.65115249 39 0 1.681198e+09
nan nan nan 0 1 1.681198e+09
2.6742344 -27.109961 6.2711372 28 14 1.681198e+09
0.82500333 -2.8620694 0.78772342 19 15 1.681198e+09
0.67546242 -6.8343515 1.0797504 9 12 1.681198e+09
0.84378374 -2.9496942 0.58907038 32 13 1.681198e+09
0.66267264 -6.7166796 0.5874297 4 10 1.681198e+09
0.83890027 -2.9500132 0.37178159 31 11 1.681198e+09
0.23610835 -2.3904457 0.041318569 114 8 1.681198e+09
0.83731413 -2.9541461 0.15910131 12 9 1.681198e+09
0.23717615 -2.4099987 -0.12549949 19 6 1.681198e+09
0.84004045 -2.9676158 -0.053229839 21 7 1.681198e+09
0.23644105 -2.4154809 -0.29328761 13 4 1.681198e+09
0.8397181 -2.9665277 -0.26616451 25 5 1.681198e+09
0.23578537 -2.4262028 -0.46616635 13 2 1.681198e+09
0.84776628 -2.9909468 -0.48743883 12 3 1.681198e+09
0.23661767 -2.4481158 -0.64921266 38 0 1.681198e+09
0.84943938 -2.9831691 -0.70696288 9 1 1.681198e+09
2.5802784 -27.126404 6.2728214 30 14 1.681198e+09
0.81301445 -2.8579662 0.78578484 39 15 1.681198e+09
0.65463972 -6.8686242 1.0848234 9 12 1.681198e+09
0.83281189 -2.9502606 0.58859378 32 13 1.681198e+09
nan nan nan 0 10 1.681198e+09
0.82927161 -2.9553115 0.37208584 31 11 1.681198e+09
0.22752745 -2.3887668 0.041274939 114 8 1.681198e+09
nan nan nan 0 9 1.681198e+09
0.22852817 -2.4083264 -0.12536822 19 6 1.681198e+09
nan nan nan 0 7 1.681198e+09
0.22800802 -2.4162917 -0.29328761 14 4 1.681198e+09
nan nan nan 0 5 1.681198e+09
0.22776911 -2.4318984 -0.46711865 12 2 1.681198e+09
0.83063513 -2.970119 -0.48352364 16 3 1.681198e+09
0.22873738 -2.456141 -0.65115249 38 0 1.681198e+09
0.83769596 -2.9814274 -0.70583981 16 1 1.681198e+09
2.4786215 -27.111422 6.2672062 30 14 1.681198e+09
0.79925424 -2.8493054 0.78255379 34 15 1.681198e+09
0.64294034 -7.0185256 1.1082368 4 12 1.681198e+09
0.82066983 -2.9485669 0.58764058 32 13 1.681198e+09
0.70527953 -7.7158084 0.67480332 58 10 1.681198e+09
0.81761938 -2.9534075 0.37147737 30 11 1.681198e+09
0.21854456 -2.3870955 0.041231308 114 8 1.681198e+09
nan nan nan 0 9 1.681198e+09
0.2194747 -2.4066615 -0.12523694 20 6 1.681198e+09
0.75073361 -2.7278385 -0.048779473 3 7 1.681198e+09
0.21915032 -2.4171109 -0.29328761 13 4 1.681198e+09
nan nan nan 0 5 1.681198e+09
0.21927883 -2.4326787 -0.46711865 12 2 1.681198e+09
nan nan nan 0 3 1.681198e+09
0.21952023 -2.4545574 -0.65050584 38 0 1.681198e+09
0.82283956 -2.9703972 -0.7024706 9 1 1.681198e+09
2.3882759 -27.114635 6.2660832 30 14 1.681198e+09
0.7904495 -2.8542671 0.78320003 36 15 1.681198e+09
0.65408713 -7.4117346 1.1702825 8 12 1.681198e+09
0.81088752 -2.951272 0.58764058 31 13 1.681198e+09
0.68203938 -7.7603998 0.67850745 83 10 1.681198e+09
0.80861962 -2.9610288 0.37208584 31 11 1.681198e+09
0.21040961 -2.3853171 0.041187678 121 8 1.681198e+09
0.74173158 -2.7267709 0.14627899 3 9 1.681198e+09
0.21149273 -2.4073761 -0.12523694 20 6 1.681198e+09
0.74252462 -2.7352653 -0.048866734 3 7 1.681198e+09
0.21113369 -2.4178245 -0.29328761 14 4 1.681198e+09
nan nan nan 0 5 1.681198e+09
0.21015568 -2.4260938 -0.46569017 12 2 1.681198e+09
nan nan nan 0 3 1.681198e+09
0.21054086 -2.4504964 -0.64921266 38 0 1.681198e+09
nan nan nan 0 1 1.681198e+09
2.2942286 -27.130089 6.2677674 31 14 1.681198e+09
0.77472043 -2.8360505 0.77738416 38 15 1.681198e+09
0.65440911 -7.7240067 1.2194507 4 12 1.681198e+09
0.7992897 -2.9493489 0.58668739 31 13 1.681198e+09
0.65797538 -7.7824721 0.68025059 61 10 1.681198e+09
0.79698098 -2.9590435 0.37147737 31 11 1.681198e+09
0.20208202 -2.3860371 0.041187678 142 8 1.681198e+09
0.73611361 -2.7438049 0.14706403 3 9 1.681198e+09
0.20308813 -2.4080994 -0.12523694 20 6 1.681198e+09
0.72972059 -2.7257726 -0.048648581 4 7 1.681198e+09
0.20269261 -2.4185467 -0.29328761 14 4 1.681198e+09
0.73031008 -2.7280068 -0.24354923 3 5 1.681198e+09
0.20188728 -2.4292586 -0.46616635 12 2 1.681198e+09
nan nan nan 0 3 1.681198e+09
0.20218238 -2.4536233 -0.64985925 39 0 1.681198e+09
nan nan nan 0 1 1.681198e+09
2.1999066 -27.142792 6.2688909 13 14 1.681198e+09
0.77366376 -2.8713703 0.78643107 9 15 1.681198e+09
nan nan nan 0 12 1.681198e+09
0.78898966 -2.952121 0.58668739 32 13 1.681198e+09
0.63164866 -7.8121386 0.68264735 6 10 1.681198e+09
0.785366 -2.9570129 0.37086886 31 11 1.681198e+09
0.19293535 -2.3817785 0.041100416 136 8 1.681198e+09
0.72990382 -2.7609603 0.14784908 4 9 1.681198e+09
0.19406173 -2.4063392 -0.12510566 21 6 1.681198e+09
0.72084332 -2.7307191 -0.048692212 6 7 1.681198e+09
0.19304119 -2.409379 -0.29207063 14 4 1.681198e+09
0.72014356 -2.7281325 -0.24333178 4 5 1.681198e+09
0.19282742 -2.4226084 -0.46473786 12 2 1.681198e+09
0.72618848 -2.7452109 -0.44476345 3 3 1.681198e+09
0.19323997 -2.4494989 -0.64856601 39 0 1.681198e+09
nan nan nan 0 1 1.681198e+09
1.0749469 -13.88415 3.2018287 35 14 1.681198e+09
0.75814706 -2.8555212 0.78126144 10 15 1.681198e+09
1.0779313 -13.922917 2.2012548 31 12 1.681198e+09
0.77564996 -2.945504 0.58478099 32 13 1.681198e+09
0.72234005 -9.343894 0.81686717 3 10 1.681198e+09
0.77325922 -2.9550726 0.37026042 31 11 1.681198e+09
0.1846202 -2.3824375 0.041100416 169 8 1.681198e+09
nan nan nan 0 9 1.681198e+09
0.18623152 -2.4144695 -0.12549949 22 6 1.681198e+09
0.71574116 -2.7501447 -0.048997626 7 7 1.681198e+09
0.18500529 -2.4149868 -0.29267913 15 4 1.681198e+09
0.71061623 -2.7306297 -0.24333178 4 5 1.681198e+09
0.18431483 -2.4281936 -0.46569017 13 2 1.681198e+09
0.70985627 -2.7239707 -0.44084826 3 3 1.681198e+09
0.18468845 -2.4501584 -0.64856601 39 0 1.681198e+09
nan nan nan 0 1 1.681198e+09
1.026117 -13.882957 3.2007058 42 14 1.681198e+09
0.75494283 -2.8838387 0.78836966 10 15 1.681198e+09
1.0282342 -13.911818 2.1989136 40 12 1.681198e+09
0.76536357 -2.9481936 0.58478099 31 13 1.681198e+09
nan nan nan 0 10 1.681198e+09
0.76293939 -2.9577534 0.37026042 31 11 1.681198e+09
0.17648543 -2.38556 0.041144043 155 8 1.681198e+09
0.75999337 -2.9569359 0.15818542 10 9 1.681198e+09
0.17780232 -2.4151049 -0.12549949 22 6 1.681198e+09
0.70238698 -2.7381051 -0.048735842 16 7 1.681198e+09
0.17675343 -2.418093 -0.29298338 15 4 1.681198e+09
0.7023257 -2.7379165 -0.2437667 12 5 1.681198e+09
0.17566226 -2.4263742 -0.46521398 12 2 1.681198e+09
0.70219821 -2.7336037 -0.44202283 3 3 1.681198e+09
0.17647749 -2.455606 -0.64985925 38 0 1.681198e+09
nan nan nan 0 1 1.681198e+09
0.97782099 -13.888885 3.201267 42 14 1.681198e+09
0.74730027 -2.8958061 0.79095447 32 15 1.681198e+09
0.98018605 -13.922711 2.2000842 35 12 1.681198e+09
0.75445586 -2.9484706 0.58430439 32 13 1.681198e+09
0.75531709 -10.749904 0.93975675 90 10 1.681198e+09
0.7525115 -2.9578636 0.36995617 31 11 1.681198e+09
0.16780935 -2.3811746 0.041056786 176 8 1.681198e+09
0.74165064 -2.9281211 0.1564845 10 9 1.681198e+09
0.16937095 -2.4157109 -0.12549949 22 6 1.681198e+09
0.68974209 -2.7284284 -0.048517689 45 7 1.681198e+09
0.16848211 -2.4211705 -0.29328761 15 4 1.681198e+09
0.6896928 -2.7282836 -0.24267942 42 5 1.681198e+09
0.16744781 -2.424495 -0.46473786 12 2 1.681198e+09
0.69434994 -2.7407022 -0.44280586 25 3 1.681198e+09
0.16774175 -2.4537976 -0.64921266 38 0 1.681198e+09
0.69878227 -2.746268 -0.64519489 12 1 1.681198e+09
0.93159574 -13.889621 3.2007058 43 14 1.681198e+09
0.75087953 -2.9497373 0.80517101 31 15 1.681198e+09
0.93302166 -13.911104 2.1977429 39 12 1.681198e+09
0.74467427 -2.9509563 0.58430439 35 13 1.681198e+09
0.71927774 -10.77484 0.94171774 96 10 1.681198e+09
0.74278903 -2.9628782 0.37026042 31 11 1.681198e+09
0.15991215 -2.3817177 0.041056786 173 8 1.681198e+09
0.7404573 -2.9644616 0.15831625 30 9 1.681198e+09
0.16086549 -2.4087861 -0.12510566 23 6 1.681198e+09
0.68021387 -2.7308192 -0.048517689 37 7 1.681198e+09
0.16012771 -2.4167638 -0.29267913 15 4 1.681198e+09
0.68064165 -2.7305555 -0.24267942 40 5 1.681198e+09
0.15946013 -2.4324119 -0.46616635 13 2 1.681198e+09
0.69019634 -2.7646613 -0.4463295 25 3 1.681198e+09
0.1590208 -2.4519582 -0.64856601 39 0 1.681198e+09
0.68847793 -2.7438464 -0.64407182 40 1 1.681198e+09
0.88279772 -13.887926 3.1995826 39 14 1.681198e+09
0.73880476 -2.9453154 0.80323231 30 15 1.681198e+09
0.88492608 -13.921668 2.1989136 31 12 1.681198e+09
0.73377311 -2.9511571 0.58382785 35 13 1.681198e+09
0.87428331 -13.7921 1.2060176 47 10 1.681198e+09
0.7312448 -2.9606366 0.36965191 30 11 1.681198e+09
0.15159746 -2.3822615 0.041056786 177 8 1.681198e+09
0.72650385 -2.9524879 0.15753123 22 9 1.681198e+09
0.15245628 -2.409333 -0.12510566 25 6 1.681198e+09
nan nan nan 0 7 1.681198e+09
0.15138336 -2.4123547 -0.29207063 15 4 1.681198e+09
0.66823924 -2.7233608 -0.24180959 40 5 1.681198e+09
0.15096846 -2.4329538 -0.46616635 12 2 1.681198e+09
0.67519951 -2.7454827 -0.44280586 37 3 1.681198e+09
0.15046088 -2.4524982 -0.64856601 39 0 1.681198e+09
0.68488592 -2.7723563 -0.65024865 40 1 1.681198e+09
0.83679211 -13.932261 3.2091284 40 14 1.681198e+09
0.72793621 -2.945533 0.8025862 31 15 1.681198e+09
0.83617735 -13.922208 2.1985233 30 12 1.681198e+09
0.72346717 -2.9537005 0.58382785 35 13 1.681198e+09
0.8223936 -13.772836 1.2040566 105 10 1.681198e+09
0.71677434 -2.9462996 0.36752224 22 11 1.681198e+09
0.14301282 -2.3852968 0.041100416 188 8 1.681198e+09
nan nan nan 0 9 1.681198e+09
0.1428908 -2.3974142 -0.12444929 25 6 1.681198e+09
nan nan nan 0 7 1.681198e+09
0.14239608 -2.4104164 -0.29176643 16 4 1.681198e+09
0.65578389 -2.7135773 -0.24072231 13 5 1.681198e+09
0.14233324 -2.4310155 -0.46569017 13 2 1.681198e+09
nan nan nan 0 3 1.681198e+09
0.14189915 -2.4530087 -0.64856601 39 0 1.681198e+09
0.67404467 -2.7699978 -0.64912552 30 1 1.681198e+09
0.78969055 -14.005772 3.2254128 25 14 1.681198e+09
0.71426326 -2.9364524 0.79935515 31 15 1.681198e+09
0.79041505 -14.018867 2.2133517 40 12 1.681198e+09
0.71090025 -2.9491773 0.58239806 31 13 1.681198e+09
0.7769621 -13.822867 1.2081964 96 10 1.681198e+09
0.70764899 -2.953608 0.36813071 10 11 1.681198e+09
0.13440751 -2.3807898 0.041013151 177 8 1.681198e+09
0.57247633 -2.40412 0.12769973 9 9 1.681198e+09
0.13479751 -2.4028838 -0.12471184 27 6 1.681198e+09
0.57000542 -2.3974862 -0.042409342 4 7 1.681198e+09
0.13398127 -2.4108987 -0.29176643 16 4 1.681198e+09
nan nan nan 0 5 1.681198e+09
0.13384655 -2.4314976 -0.46569017 13 2 1.681198e+09
0.69697112 -2.9205885 -0.47060359 4 3 1.681198e+09
0.13307703 -2.4486661 -0.64727277 38 0 1.681198e+09
nan nan nan 0 1 1.681198e+09
0.74337012 -14.010745 3.2259743 23 14 1.681198e+09
0.69262207 -2.8895047 0.78578484 36 15 1.681198e+09
0.74405295 -14.023876 2.213742 43 12 1.681198e+09
0.70054573 -2.9491317 0.58192146 31 13 1.681198e+09
0.73982251 -14.036895 1.2267171 104 10 1.681198e+09
0.69561452 -2.9488173 0.36721799 12 11 1.681198e+09
0.12677343 -2.3862147 0.041100416 212 8 1.681198e+09
0.56450093 -2.4060051 0.12769973 22 9 1.681198e+09
0.12682852 -2.4033177 -0.12471184 28 6 1.681198e+09
0.56105894 -2.3970287 -0.042365715 9 7 1.681198e+09
0.12624112 -2.4162858 -0.29237488 16 4 1.681198e+09
0.56344277 -2.4053044 -0.21267067 9 5 1.681198e+09
0.12510903 -2.4270482 -0.46473786 14 2 1.681198e+09
nan nan nan 0 3 1.681198e+09
0.12464968 -2.4515274 -0.64791936 35 0 1.681198e+09
nan nan nan 0 1 1.681198e+09
1.3072752 -26.410156 6.0869555 12 14 1.681198e+09
0.67415482 -2.8566611 0.77609175 42 15 1.681198e+09
0.97197384 -19.627459 3.099941 20 12 1.681198e+09
0.6879971 -2.9420037 0.58001512 66 13 1.681198e+09
0.6941281 -14.056684 1.2282423 90 10 1.681198e+09
0.68644696 -2.9560604 0.36782649 28 11 1.681198e+09
0.1183211 -2.384146 0.041056786 207 8 1.681198e+09
0.55496633 -2.4030981 0.12743805 32 9 1.681198e+09
0.11831753 -2.4012523 -0.12458057 28 6 1.681198e+09
0.55438542 -2.4062772 -0.042496607 13 7 1.681198e+09
0.11768688 -2.4142332 -0.29207063 16 4 1.681198e+09
0.55462307 -2.4073534 -0.21267067 20 5 1.681198e+09
0.11686836 -2.4323728 -0.46569017 14 2 1.681198e+09
0.55783278 -2.415566 -0.38760194 9 3 1.681198e+09
0.11541653 -2.4374738 -0.64403963 29 0 1.681198e+09
0.56229872 -2.4234693 -0.565458 8 1 1.681198e+09
1.2120605 -26.348852 6.0717945 27 14 1.681198e+09
0.66307867 -2.8542941 0.77479935 14 15 1.681198e+09
nan nan nan 0 12 1.681198e+09
0.67938584 -2.9515598 0.58144486 35 13 1.681198e+09
0.6426031 -14.059134 1.2282423 9 10 1.681198e+09
0.67389816 -2.9487658 0.36660951 9 11 1.681198e+09
0.10969494 -2.3870611 0.041100416 223 8 1.681198e+09
0.54671222 -2.4075496 0.12756889 31 9 1.681198e+09
0.1092918 -2.3966813 -0.12431801 28 6 1.681198e+09
0.54653978 -2.4106343 -0.042540237 16 7 1.681198e+09
0.10872751 -2.4121695 -0.29176643 17 4 1.681198e+09
0.54732686 -2.4141307 -0.21310559 23 5 1.681198e+09
0.10805465 -2.4254105 -0.46426168 14 2 1.681198e+09
0.54884577 -2.4150915 -0.38721043 13 3 1.681198e+09
0.10659523 -2.4306238 -0.64209968 16 0 1.681198e+09
0.55328894 -2.4230435 -0.56489646 12 1 1.681198e+09
1.1131132 -26.297136 6.0588794 17 14 1.681198e+09
0.65586245 -2.8708265 0.77867663 17 15 1.681198e+09
0.87873203 -20.751534 3.2767129 22 12 1.681198e+09
0.66638172 -2.944459 0.57953846 36 13 1.681198e+09
nan nan nan 0 10 1.681198e+09
0.66418111 -2.9560561 0.36721799 10 11 1.681198e+09
0.10104915 -2.3799367 0.040969521 252 8 1.681198e+09
0.53885382 -2.4118786 0.12769973 29 9 1.681198e+09
0.1010284 -2.399543 -0.12444929 31 6 1.681198e+09
0.53812176 -2.4125273 -0.042540237 16 7 1.681198e+09
0.10010418 -2.4075754 -0.29115793 17 4 1.681198e+09
0.53834993 -2.4135966 -0.21288812 20 5 1.681198e+09
0.099065855 -2.4233379 -0.4637855 14 2 1.681198e+09
0.54324734 -2.4315398 -0.38955954 16 3 1.681198e+09
nan nan nan 0 0 1.681198e+09
0.54698145 -2.4344633 -0.56714255 19 1 1.681198e+09
nan nan nan 0 14 1.681198e+09
0.64637077 -2.8754535 0.7793228 23 15 1.681198e+09
1.0548007 -27.165047 4.2905154 32 12 1.681198e+09
0.65771067 -2.9539509 0.58096826 36 13 1.681198e+09
0.97670704 -25.26462 2.2089622 22 10 1.681198e+09
0.65170175 -2.948668 0.36600104 21 11 1.681198e+09
0.092836536 -2.3827727 0.041013151 251 8 1.681198e+09
0.52989119 -2.4113078 0.12756889 28 9 1.681198e+09
0.092557281 -2.3973861 -0.12431801 31 6 1.681198e+09
0.53077751 -2.4192722 -0.042627499 16 7 1.681198e+09
0.091884889 -2.4128697 -0.29176643 19 4 1.681198e+09
0.53045988 -2.4178929 -0.21310559 20 5 1.681198e+09
0.090786099 -2.4285741 -0.46473786 14 2 1.681198e+09
0.53368759 -2.4285998 -0.38877648 16 3 1.681198e+09
nan nan nan 0 0 1.681198e+09
0.53901047 -2.4387355 -0.56770408 25 1 1.681198e+09
nan nan nan 0 14 1.681198e+09
0.63370365 -2.8659058 0.77609175 30 15 1.681198e+09
0.96258181 -27.242599 4.3022223 29 12 1.681198e+09
0.64739543 -2.956229 0.58096826 36 13 1.681198e+09
0.95909083 -27.27895 2.3850169 30 10 1.681198e+09
0.64457583 -2.9629326 0.36752224 30 11 1.681198e+09
0.084605329 -2.3855803 0.041056786 255 8 1.681198e+09
0.5214709 -2.4131427 0.12756889 27 9 1.681198e+09
0.084274098 -2.4001896 -0.12444929 30 6 1.681198e+09
0.52179784 -2.4186676 -0.042583872 16 7 1.681198e+09
0.083545841 -2.4156556 -0.29207063 19 4 1.681198e+09
0.52201658 -2.4197299 -0.21310559 20 5 1.681198e+09
0.082568549 -2.4239562 -0.4637855 15 2 1.681198e+09
0.52615756 -2.4327688 -0.38916802 16 3 1.681198e+09
nan nan nan 0 0 1.681198e+09
0.53049439 -2.4406021 -0.56770408 20 1 1.681198e+09
nan nan nan 0 14 1.681198e+09
0.61798823 -2.8396842 0.76833731 39 15 1.681198e+09
0.87310427 -27.272793 4.3065147 29 12 1.681198e+09
0.63758874 -2.9583595 0.58096826 36 13 1.681198e+09
0.86433566 -27.297068 2.3863242 34 10 1.681198e+09
0.63318396 -2.9603128 0.36691374 31 11 1.681198e+09
0.076615483 -2.3833494 0.041013151 254 8 1.681198e+09
0.51241821 -2.4099762 0.12730721 27 9 1.681198e+09
0.07623677 -2.3979604 -0.12431801 32 6 1.681198e+09
0.51282877 -2.41803 -0.042540237 16 7 1.681198e+09
0.075307436 -2.4084785 -0.29115793 19 4 1.681198e+09
0.51398963 -2.4214475 -0.21310559 19 5 1.681198e+09
0.074180104 -2.4266827 -0.46426168 14 2 1.681198e+09
0.51818037 -2.4370046 -0.38955954 16 3 1.681198e+09
nan nan nan 0 0 1.681198e+09
0.52239817 -2.4423478 -0.56770408 19 1 1.681198e+09
nan nan nan 0 14 1.681198e+09
0.61469072 -2.8725138 0.77673793 9 15 1.681198e+09
0.77747768 -27.26086 4.304173 31 12 1.681198e+09
0.62623352 -2.9557667 0.58001512 37 13 1.681198e+09
0.77303612 -27.2724 2.3839273 34 10 1.681198e+09
0.62233251 -2.9600775 0.36660951 34 11 1.681198e+09
0.068155989 -2.3786051 0.04092589 255 8 1.681198e+09
0.50348747 -2.4093075 0.12717636 27 9 1.681198e+09
0.067934707 -2.4007077 -0.12444929 34 6 1.681198e+09
0.50489974 -2.4222515 -0.042583872 15 7 1.681198e+09
0.066966943 -2.4112074 -0.29146218 19 4 1.681198e+09
0.50459838 -2.4208779 -0.21288812 19 5 1.681198e+09
0.065644272 -2.4244733 -0.4637855 14 2 1.681198e+09
0.5096705 -2.4387987 -0.38955954 15 3 1.681198e+09
0.052202143 -1.9661864 -0.5173009 90 0 1.681198e+09
0.51394826 -2.4466295 -0.56826562 19 1 1.681198e+09
0.65378481 -26.120049 6.0145192 16 14 1.681198e+09
0.60015208 -2.8533792 0.77092212 10 15 1.681198e+09
0.68225318 -27.260942 4.3037829 31 12 1.681198e+09
0.61490422 -2.953131 0.57906187 36 13 1.681198e+09
0.67411441 -27.317375 2.3876314 38 10 1.681198e+09
0.61098456 -2.9573731 0.36600104 34 11 1.681198e+09
0.059558775 -2.3838367 0.041013151 254 8 1.681198e+09
0.4941473 -2.4086924 0.12704553 27 9 1.681198e+09
0.059075519 -2.3984444 -0.12431801 37 6 1.681198e+09
0.49441725 -2.4142075 -0.042409342 15 7 1.681198e+09
0.058128979 -2.4114366 -0.29146218 20 4 1.681198e+09
0.49614486 -2.4226246 -0.21288812 17 5 1.681198e+09
0.057124771 -2.4222341 -0.46330932 15 2 1.681198e+09
0.50115442 -2.440563 -0.38955954 15 3 1.681198e+09
0.04512446 -1.9566994 -0.51471442 90 0 1.681198e+09
0.50391406 -2.4412541 -0.56658107 17 1 1.681198e+09
nan nan nan 0 14 1.681198e+09
0.59608877 -2.8862965 0.7793228 10 15 1.681198e+09
0.57749528 -27.036129 4.2678823 8 12 1.681198e+09
0.60407627 -2.9553649 0.57906187 36 13 1.681198e+09
0.57365346 -27.078039 2.3664963 40 10 1.681198e+09
0.6006577 -2.9594879 0.36600104 34 11 1.681198e+09
0.051133446 -2.3790319 0.04092589 255 8 1.681198e+09
0.48523861 -2.4079556 0.12691469 27 9 1.681198e+09
0.050703026 -2.3986361 -0.12431801 40 6 1.681198e+09
0.48648456 -2.4183683 -0.042452976 15 7 1.681198e+09
0.04966177 -2.4091437 -0.29115793 21 4 1.681198e+09
0.48718962 -2.4219007 -0.21267067 17 5 1.681198e+09
0.048764337 -2.4273264 -0.46426168 16 2 1.681198e+09
0.49213949 -2.439878 -0.38916802 15 3 1.681198e+09
0.038068548 -1.9447722 -0.51148129 89 0 1.681198e+09
0.49490082 -2.4406114 -0.56601954 17 1 1.681198e+09
nan nan nan 0 14 1.681198e+09
0.58312356 -2.8716953 0.77479935 38 15 1.681198e+09
0.49169886 -27.252697 4.3018317 25 12 1.681198e+09
0.59329838 -2.9525416 0.57810873 35 13 1.681198e+09
0.4814128 -27.209362 2.3778265 45 10 1.681198e+09
0.58983469 -2.9591336 0.36569679 32 11 1.681198e+09
0.043287635 -2.3816876 0.040969521 255 8 1.681198e+09
0.47676128 -2.4071035 0.12678385 27 9 1.681198e+09
0.04270589 -2.3962953 -0.12418674 43 6 1.681198e+09
0.47706205 -2.4151492 -0.042365715 14 7 1.681198e+09
0.041713633 -2.4117765 -0.29146218 21 4 1.681198e+09
0.47866803 -2.4210606 -0.2124532 17 5 1.681198e+09
0.04029109 -2.4274819 -0.46426168 16 2 1.681198e+09
0.48168275 -2.431896 -0.38760194 15 3 1.681198e+09
0.031426463 -1.9545518 -0.51406777 84 0 1.681198e+09
0.48776609 -2.4470155 -0.56714255 17 1 1.681198e+09
nan nan nan 0 14 1.681198e+09
0.58833146 -2.9494779 0.79547787 34 15 1.681198e+09
0.39660197 -27.256716 4.3022223 30 12 1.681198e+09
0.58394599 -2.9594083 0.57906187 35 13 1.681198e+09
0.39228553 -27.288006 2.3845811 38 10 1.681198e+09
0.57950181 -2.9611747 0.36569679 32 11 1.681198e+09
0.035008632 -2.3843238 0.041013151 255 8 1.681198e+09
0.46787491 -2.4063032 0.126653 27 9 1.681198e+09
0.034408964 -2.4014223 -0.12444929 61 6 1.681198e+09
0.46905053 -2.416718 -0.042365715 15 7 1.681198e+09
0.0331323 -2.3995013 -0.28994095 28 4 1.681198e+09
0.47021404 -2.4227169 -0.2124532 17 5 1.681198e+09
0.031786937 -2.4251535 -0.4637855 21 2 1.681198e+09
0.47461829 -2.4408312 -0.38877648 15 3 1.681198e+09
0.024887439 -1.9498158 -0.51277453 86 0 1.681198e+09
0.47827676 -2.4439235 -0.56601954 17 1 1.681198e+09
nan nan nan 0 14 1.681198e+09
0.57803226 -2.9515138 0.79547787 34 15 1.681198e+09
0.30153733 -27.265341 4.3033929 32 12 1.681198e+09
0.57220101 -2.9542029 0.57763213 35 13 1.681198e+09
0.2967338 -27.261814 2.3821843 35 10 1.681198e+09
0.56869006 -2.9607432 0.36539254 32 11 1.681198e+09
0.026659403 -2.3819318 0.040969521 253 8 1.681198e+09
0.45994505 -2.4103732 0.12678385 27 9 1.681198e+09
0.02589987 -2.3890455 -0.12379291 95 6 1.681198e+09
0.46061173 -2.4183404 -0.042365715 14 7 1.681198e+09
0.024803918 -2.4045651 -0.29054946 39 4 1.681198e+09
0.46269539 -2.429235 -0.21288812 16 5 1.681198e+09
0.023190305 -2.4105248 -0.4609285 24 2 1.681198e+09
0.46609533 -2.4424732 -0.38877648 14 3 1.681198e+09
0.018101394 -1.9523057 -0.51342118 81 0 1.681198e+09
0.46927893 -2.4431865 -0.565458 17 1 1.681198e+09
nan nan nan 0 14 1.681198e+09
0.56910479 -2.9606261 0.79741657 34 15 1.681198e+09
0.2063617 -27.266228 4.3033929 24 12 1.681198e+09
0.56280935 -2.9610026 0.57858527 34 13 1.681198e+09
0.20184432 -27.300039 2.3854527 32 10 1.681198e+09
0.55881494 -2.965148 0.36569679 32 11 1.681198e+09
0.018327294 -2.3795109 0.04092589 255 8 1.681198e+09
0.44967264 -2.4021516 0.12626049 27 9 1.681198e+09
0.017560385 -2.3891213 -0.12379291 107 6 1.681198e+09
0.451745 -2.4200125 -0.042365715 15 7 1.681198e+09
0.016334478 -2.3922303 -0.28902826 68 4 1.681198e+09
0.45240402 -2.4235725 -0.21223576 17 5 1.681198e+09
0.014775862 -2.4105911 -0.4609285 29 2 1.681198e+09
0.45573118 -2.4343803 -0.38721043 15 3 1.681198e+09
0.010945714 -1.9523591 -0.51342118 79 0 1.681198e+09
0.45941061 -2.4401035 -0.56433499 16 1 1.681198e+09
nan nan nan 0 14 1.681198e+09
nan nan nan 0 15 1.681198e+09
0.11123311 -27.279127 4.3053436 31 12 1.681198e+09
nan nan nan 0 13 1.681198e+09
0.10181984 -27.310558 2.3863242 43 10 1.681198e+09
nan nan nan 0 11 1.681198e+09
0.0096058277 -2.3795621 0.04092589 255 8 1.681198e+09
0.44086525 -2.4037838 0.12626049 28 9 1.681198e+09
0.0088037001 -2.3891695 -0.12379291 96 6 1.681198e+09
0.44238546 -2.4166589 -0.04227845 16 7 1.681198e+09
0.0075785313 -2.3972366 -0.28963673 44 4 1.681198e+09
0.44258237 -2.4177897 -0.21158339 17 5 1.681198e+09
0.0063565271 -2.408174 -0.46045235 24 2 1.681198e+09
0.44768122 -2.4383843 -0.38760194 15 3 1.681198e+09
0.0041365433 -1.9572152 -0.51471442 77 0 1.681198e+09
0.45044336 -2.4392974 -0.56377339 17 1 1.681198e+09
nan nan nan 0 14 1.681198e+09
0.62181753 -3.3611035 0.90533268 30 15 1.681198e+09
0.011246763 -27.271944 4.304173 32 12 1.681198e+09
0.61631733 -3.3704262 0.65865314 30 13 1.681198e+09
0.0064906282 -27.32818 2.3878493 36 10 1.681198e+09
0.6112842 -3.3692951 0.41559219 31 11 1.681198e+09
0.0012995475 -2.3795812 0.04092589 255 8 1.681198e+09
0.43291825 -2.4077644 0.12639134 28 9 1.681198e+09
0.00045996648 -2.3966758 -0.12418674 72 6 1.681198e+09
0.43260881 -2.4108098 -0.042147558 16 7 1.681198e+09
-0.00078423542 -2.3922861 -0.28902826 32 4 1.681198e+09
0.43369555 -2.4168694 -0.21136592 17 5 1.681198e+09
-0.0020650281 -2.4179983 -0.46235701 23 2 1.681198e+09
0.43784121 -2.4326444 -0.3864274 15 3 1.681198e+09
-0.0026680413 -1.945143 -0.51148129 81 0 1.681198e+09
0.44192588 -2.440855 -0.56377339 17 1 1.681198e+09
nan nan nan 0 14 1.681198e+09
0.5611105 -3.0923297 0.8316654 9 15 1.681198e+09
-0.079197653 -27.274302 4.3045635 23 12 1.681198e+09
0.5597204 -3.1212931 0.60908735 10 13 1.681198e+09
-0.088869527 -27.318075 2.3869779 40 10 1.681198e+09
0.55049521 -3.0978475 0.38151729 12 11 1.681198e+09
-0.00658271 -2.3770728 0.04088226 255 8 1.681198e+09
0.42405492 -2.4042714 0.12612964 28 9 1.681198e+09
-0.0075068707 -2.4016571 -0.12444929 47 6 1.681198e+09
0.4255034 -2.4196885 -0.04227845 16 7 1.681198e+09
-0.0087498184 -2.399714 -0.28994095 27 4 1.681198e+09
0.42611486 -2.4207463 -0.21158339 19 5 1.681198e+09
-0.010530248 -2.4228847 -0.46330932 19 2 1.681198e+09
0.42934704 -2.4341581 -0.3864274 15 3 1.681198e+09
-0.0094856592 -1.9499515 -0.51277453 77 0 1.681198e+09
0.43296817 -2.4375114 -0.56265032 17 1 1.681198e+09
nan nan nan 0 14 1.681198e+09
0.54647505 -3.0728757 0.82584953 10 15 1.681198e+09
-0.1743544 -27.266451 4.3033929 29 12 1.681198e+09
0.54111272 -3.0797307 0.60050863 17 13 1.681198e+09
-0.17949207 -27.322611 2.3874137 43 10 1.681198e+09
0.53924912 -3.0973063 0.38121304 27 11 1.681198e+09
-0.014915101 -2.3820343 0.040969521 254 8 1.681198e+09
0.41565987 -2.4057367 0.12612964 28 9 1.681198e+09
-0.01583527 -2.3941267 -0.12405547 50 6 1.681198e+09
0.41618904 -2.4136984 -0.042147558 17 7 1.681198e+09
-0.017126329 -2.3996689 -0.28994095 27 4 1.681198e+09
0.41680682 -2.4173121 -0.21114849 19 5 1.681198e+09
-0.01898763 -2.422833 -0.46330932 21 2 1.681198e+09
0.42127261 -2.4380741 -0.38681895 15 3 1.681198e+09
-0.016039547 -1.9595687 -0.51536101 77 0 1.681198e+09
0.4253014 -2.4438064 -0.56377339 17 1 1.681198e+09
nan nan nan 0 14 1.681198e+09
0.53532726 -3.072386 0.8252033 17 15 1.681198e+09
-0.26953104 -27.265676 4.3033929 31 12 1.681198e+09
0.52951956 -3.0767651 0.59955543 17 13 1.681198e+09
-0.27496555 -27.331779 2.3882854 39 10 1.681198e+09
0.5275929 -3.0942788 0.38060457 29 11 1.681198e+09
-0.023229863 -2.3819678 0.040969521 255 8 1.681198e+09
0.40641758 -2.4022515 0.12586798 29 9 1.681198e+09
-0.024219252 -2.3965535 -0.12418674 37 6 1.681198e+09
0.40818188 -2.4176009 -0.042191193 17 7 1.681198e+09
-0.025587084 -2.4070382 -0.29085368 23 4 1.681198e+09
0.4087854 -2.4212072 -0.21136592 19 5 1.681198e+09
-0.027503891 -2.4276602 -0.46426168 17 2 1.681198e+09
0.41275957 -2.4395297 -0.38681895 15 3 1.681198e+09
-0.022879621 -1.9595008 -0.51536101 75 0 1.681198e+09
0.41635451 -2.4428754 -0.56321186 19 1 1.681198e+09
nan nan nan 0 14 1.681198e+09
0.525419 -3.0789959 0.82649577 22 15 1.681198e+09
-0.36487028 -27.276915 4.3053436 25 12 1.681198e+09
0.52001053 -3.0858529 0.60098523 12 13 1.681198e+09
-0.37030175 -27.325672 2.3878493 31 10 1.681198e+09
0.51596445 -3.091208 0.37999609 29 11 1.681198e+09
-0.031544339 -2.3818722 0.040969521 255 8 1.681198e+09
0.39802969 -2.4036553 0.12586798 29 9 1.681198e+09
-0.032656092 -2.4014466 -0.12444929 34 6 1.681198e+09
0.39931825 -2.4190805 -0.042191193 17 7 1.681198e+09
-0.033989061 -2.4069343 -0.29085368 21 4 1.681198e+09
0.39949837 -2.4202328 -0.21114849 19 5 1.681198e+09
-0.03597784 -2.4275496 -0.46426168 15 2 1.681198e+09
0.40301758 -2.43365 -0.38564435 16 3 1.681198e+09
-0.029983005 -1.9545746 -0.51406777 76 0 1.681198e+09
0.40658814 -2.4395807 -0.56208885 19 1 1.681198e+09
nan nan nan 0 14 1.681198e+09
0.51386511 -3.0760484 0.8252033 20 15 1.681198e+09
-0.46012408 -27.277945 4.3057342 30 12 1.681198e+09
0.50681818 -3.0731242 0.5981257 13 13 1.681198e+09
-0.47053897 -27.329113 2.3882854 42 10 1.681198e+09
0.505171 -3.0929899 0.37999609 30 11 1.681198e+09
-0.040362246 -2.3867388 0.041056786 236 8 1.681198e+09
0.38841024 -2.4001706 0.12560628 29 9 1.681198e+09
-0.041412733 -2.3988147 -0.12431801 32 6 1.681198e+09
0.39046851 -2.4179926 -0.042147558 17 7 1.681198e+09
-0.042856589 -2.4092748 -0.29115793 22 4 1.681198e+09
0.39104775 -2.4216127 -0.21114849 19 5 1.681198e+09
-0.044404663 -2.4249554 -0.4637855 14 2 1.681198e+09
0.39412066 -2.4326053 -0.38525286 16 3 1.681198e+09
-0.036853183 -1.9568726 -0.51471442 74 0 1.681198e+09
0.39806992 -2.4409854 -0.56208885 17 1 1.681198e+09
nan nan nan 0 14 1.681198e+09
0.50180185 -3.0731454 0.82391095 34 15 1.681198e+09
-0.56035393 -27.28842 4.3076854 29 12 1.681198e+09
0.49633926 -3.0798059 0.59907883 16 13 1.681198e+09
-0.56598419 -27.329792 2.3885031 38 10 1.681198e+09
0.4935813 -3.0898349 0.37938759 30 11 1.681198e+09
-0.048746061 -2.3890829 0.041100416 225 8 1.681198e+09
0.38042459 -2.4039769 0.12573713 29 9 1.681198e+09
-0.049785912 -2.3986554 -0.12431801 34 6 1.681198e+09
0.38123682 -2.4144044 -0.042060297 17 7 1.681198e+09
-0.051266264 -2.4091101 -0.29115793 21 4 1.681198e+09
0.38180622 -2.4180439 -0.21071357 20 5 1.681198e+09
-0.052869067 -2.4247856 -0.4637855 15 2 1.681198e+09
0.38562691 -2.4339664 -0.38525286 19 3 1.681198e+09
-0.043515559 -1.949489 -0.51277453 76 0 1.681198e+09
0.38954684 -2.4423599 -0.56208885 17 1 1.681198e+09
nan nan nan 0 14 1.681198e+09
0.49160814 -3.0747926 0.82391095 15 15 1.681198e+09
-0.6504882 -27.271599 4.3053436 27 12 1.681198e+09
0.48573756 -3.0790112 0.59860224 17 13 1.681198e+09
-0.66156071 -27.335119 2.3891568 38 10 1.681198e+09
0.48279276 -3.0915391 0.37938759 30 11 1.681198e+09
-0.056607205 -2.3864088 0.041056786 206 8 1.681198e+09
0.37245065 -2.4052253 0.12573713 29 9 1.681198e+09
-0.057801731 -2.4009733 -0.12444929 30 6 1.681198e+09
0.37242079 -2.4132507 -0.042016666 19 7 1.681198e+09
-0.059317674 -2.4114077 -0.29146218 21 4 1.681198e+09
0.37417045 -2.4217575 -0.21093103 20 5 1.681198e+09
-0.061524272 -2.4319463 -0.46521398 14 2 1.681198e+09
0.37751085 -2.437737 -0.38564435 17 3 1.681198e+09
-0.050449245 -1.9541534 -0.51406777 74 0 1.681198e+09
0.38106531 -2.441232 -0.56152731 17 1 1.681198e+09
nan nan nan 0 14 1.681198e+09
0.48049554 -3.0741043 0.82326472 15 15 1.681198e+09
-0.74588293 -27.276567 4.3065147 29 12 1.681198e+09
0.47423169 -3.0758381 0.5976491 19 13 1.681198e+09
-0.75206631 -27.327795 2.388721 38 10 1.681198e+09
0.47162041 -3.0907531 0.37908337 30 11 1.681198e+09
-0.064867184 -2.3836982 0.041013151 212 8 1.681198e+09
0.36405256 -2.4065108 0.12573713 30 9 1.681198e+09
-0.066182345 -2.4007566 -0.12444929 29 6 1.681198e+09
0.36517146 -2.4194143 -0.042103928 19 7 1.681198e+09
-0.067806147 -2.4136665 -0.29176643 20 4 1.681198e+09
0.3657147 -2.4230487 -0.21093103 21 5 1.681198e+09
-0.070012972 -2.4317167 -0.46521398 16 2 1.681198e+09
0.36750364 -2.4292772 -0.38407829 19 3 1.681198e+09
-0.056929167 -1.9539753 -0.51406777 73 0 1.681198e+09
0.37254149 -2.4425473 -0.56152731 17 1 1.681198e+09
nan nan nan 0 14 1.681198e+09
0.47013026 -3.0781498 0.82391095 12 15 1.681198e+09
-0.84139639 -27.283669 4.3080754 28 12 1.681198e+09
0.46718308 -3.101737 0.60241497 19 13 1.681198e+09
-0.847763 -27.334963 2.3895926 36 10 1.681198e+09
0.46045947 -3.0899267 0.37877911 32 11 1.681198e+09
-0.073265962 -2.3859556 0.041056786 189 8 1.681198e+09
0.35638896 -2.4127049 0.12599881 30 9 1.681198e+09
-0.074482843 -2.3980155 -0.12431801 28 6 1.681198e+09
0.35672387 -2.4206743 -0.042103928 19 7 1.681198e+09
-0.076150902 -2.4109349 -0.29146218 21 4 1.681198e+09
0.35651904 -2.4193842 -0.21049611 20 5 1.681198e+09
-0.078500822 -2.4314578 -0.46521398 19 2 1.681198e+09
0.36011782 -2.437871 -0.38525286 17 3 1.681198e+09
-0.063992202 -1.9610054 -0.51600766 69 0 1.681198e+09
0.3643766 -2.4462416 -0.56208885 19 1 1.681198e+09
nan nan nan 0 14 1.681198e+09
0.46082219 -3.0893242 0.82649577 12 15 1.681198e+09
-0.93679881 -27.285503 4.308856 24 12 1.681198e+09
0.45418945 -3.088784 0.59955543 27 13 1.681198e+09
-0.9431746 -27.331837 2.3895926 34 10 1.681198e+09
0.44931 -3.0890601 0.37847489 23 11 1.681198e+09
-0.081506819 -2.3831873 0.041013151 215 8 1.681198e+09
0.34688237 -2.406523 0.12560628 31 9 1.681198e+09
-0.083117038 -2.4052262 -0.12471184 27 6 1.681198e+09
0.34820923 -2.424439 -0.042147558 21 7 1.681198e+09
-0.084566161 -2.4106541 -0.29146218 21 4 1.681198e+09
0.34800786 -2.4231391 -0.21071357 21 5 1.681198e+09
-0.086898215 -2.4287162 -0.46473786 17 2 1.681198e+09
0.35124901 -2.4366703 -0.38486135 16 3 1.681198e+09
-0.071448483 -1.9679976 -0.51794755 68 0 1.681198e+09
0.35540825 -2.4475608 -0.56208885 19 1 1.681198e+09
nan nan nan 0 14 1.681198e+09
0.45812115 -3.1458683 0.84135842 15 15 1.681198e+09
-1.0323179 -27.289469 4.3100266 30 12 1.681198e+09
nan nan nan 0 13 1.681198e+09
-1.0434397 -27.330685 2.3898106 32 10 1.681198e+09
nan nan nan 0 11 1.681198e+09
-0.090433881 -2.3878682 0.041100416 186 8 1.681198e+09
0.33911502 -2.4151936 0.12599881 31 9 1.681198e+09
-0.092126347 -2.4098945 -0.12497439 27 6 1.681198e+09
0.33904156 -2.4206901 -0.042060297 22 7 1.681198e+09
-0.093498938 -2.4128077 -0.29176643 21 4 1.681198e+09
0.33884731 -2.4194078 -0.21027867 21 5 1.681198e+09
-0.095473558 -2.4308503 -0.46521398 15 2 1.681198e+09
0.34134793 -2.4281034 -0.38329527 17 3 1.681198e+09
-0.078219458 -1.9653232 -0.5173009 71 0 1.681198e+09
0.3461701 -2.4439635 -0.56096578 19 1 1.681198e+09
nan nan nan 0 14 1.681198e+09
0.45824262 -3.2288063 0.86332941 12 15 1.681198e+09
-1.1326394 -27.292904 4.3111973 30 12 1.681198e+09
nan nan nan 0 13 1.681198e+09
-1.1391468 -27.334341 2.3904641 35 10 1.681198e+09
nan nan nan 0 11 1.681198e+09
-0.098663427 -2.3850403 0.041056786 206 8 1.681198e+09
0.33033916 -2.4138894 0.12586798 32 9 1.681198e+09
-0.1003262 -2.4045699 -0.12471184 27 6 1.681198e+09
0.33024704 -2.419383 -0.042016666 22 7 1.681198e+09
-0.10192064 -2.4124668 -0.29176643 20 4 1.681198e+09
0.32971704 -2.4156415 -0.20984375 22 5 1.681198e+09
-0.10427538 -2.4280324 -0.46473786 16 2 1.681198e+09
0.33210683 -2.4268925 -0.38290375 17 3 1.681198e+09
-0.085079238 -1.9650383 -0.5173009 67 0 1.681198e+09
0.33831248 -2.4499824 -0.56208885 19 1 1.681198e+09
nan nan nan 0 14 1.681198e+09
3.7840011 -27.095478 7.3111596 12 15 1.681198e+09
-1.2274579 -27.278915 4.3096361 27 12 1.681198e+09
0.66364861 -4.853642 0.94460958 59 13 1.681198e+09
-1.2352297 -27.345125 2.3917716 35 10 1.681198e+09
0.65732503 -4.8639708 0.59752786 59 11 1.681198e+09
-0.10687435 -2.3821845 0.041013151 179 8 1.681198e+09
0.32157665 -2.412554 0.12573713 34 9 1.681198e+09
-0.10871911 -2.4042051 -0.12471184 26 6 1.681198e+09
0.32146576 -2.4180439 -0.041973036 22 7 1.681198e+09
-0.11045625 -2.4145746 -0.29207063 20 4 1.681198e+09
0.32194856 -2.4217145 -0.21027867 22 5 1.681198e+09
-0.11286576 -2.4301047 -0.46521398 15 2 1.681198e+09
0.32462588 -2.4353776 -0.38407829 18 3 1.681198e+09
-0.092053011 -1.9671415 -0.51794755 68 0 1.681198e+09
0.32811165 -2.4390795 -0.55928123 19 1 1.681198e+09
nan nan nan 0 14 1.681198e+09
3.6910274 -27.120489 7.3143902 29 15 1.681198e+09
-1.3239892 -27.301598 4.3139286 30 12 1.681198e+09
0.64670223 -4.8559284 0.94460958 58 13 1.681198e+09
-1.3301895 -27.330696 2.3908999 29 10 1.681198e+09
0.64119196 -4.8661237 0.59752786 47 11 1.681198e+09
-0.11531162 -2.3842936 0.041056786 187 8 1.681198e+09
0.31282738 -2.4111865 0.12560628 34 9 1.681198e+09
-0.11748047 -2.4112916 -0.12510566 24 6 1.681198e+09
0.31302327 -2.4191513 -0.041973036 22 7 1.681198e+09
-0.11876021 -2.4116964 -0.29176643 19 4 1.681198e+09
0.31316897 -2.4203541 -0.21006121 22 5 1.681198e+09
-0.12117114 -2.4346197 -0.46616635 15 2 1.681198e+09
0.31622538 -2.4339929 -0.38368681 17 3 1.681198e+09
-0.098919064 -1.9668082 -0.51794755 66 0 1.681198e+09
0.32087934 -2.4498696 -0.56152731 19 1 1.681198e+09
nan nan nan 0 14 1.681198e+09
3.5997996 -27.123003 7.3118052 28 15 1.681198e+09
-1.4147731 -27.301989 4.3147092 30 12 1.681198e+09
0.63027763 -4.8556128 0.94413298 60 13 1.681198e+09
-1.426363 -27.340813 2.3922074 32 10 1.681198e+09
0.39151552 -3.0668995 0.37482399 3 11 1.681198e+09
-0.12334841 -2.3863943 0.041100416 176 8 1.681198e+09
0.30514759 -2.4146869 0.12573713 34 9 1.681198e+09
-0.12521291 -2.4059026 -0.12484312 24 6 1.681198e+09
0.3039434 -2.4152701 -0.041885771 23 7 1.681198e+09
-0.12702109 -2.416245 -0.29237488 20 4 1.681198e+09
0.30387697 -2.4114976 -0.2091914 22 5 1.681198e+09
-0.12927192 -2.4268298 -0.46473786 15 2 1.681198e+09
0.30772725 -2.4350817 -0.38368681 17 3 1.681198e+09
-0.10604761 -1.9712734 -0.51924074 67 0 1.681198e+09
0.3124406 -2.4485042 -0.56096578 19 1 1.681198e+09
nan nan nan 0 14 1.681198e+09
3.5026228 -27.116241 7.3066359 22 15 1.681198e+09
-1.5103391 -27.301813 4.3154898 27 12 1.681198e+09
0.6130147 -4.8553486 0.94365638 58 13 1.681198e+09
-1.5177113 -27.348364 2.3932967 34 10 1.681198e+09
0.38575625 -3.1076407 0.37969184 8 11 1.681198e+09
-0.13153818 -2.3834531 0.041056786 176 8 1.681198e+09
0.29578987 -2.4083054 0.12534462 35 9 1.681198e+09
-0.13361031 -2.4054508 -0.12484312 24 6 1.681198e+09
0.29520264 -2.413836 -0.041842144 23 7 1.681198e+09
-0.1353139 -2.4133096 -0.29207063 20 4 1.681198e+09
0.29595724 -2.4200096 -0.20984375 22 5 1.681198e+09
-0.13802405 -2.4312642 -0.46569017 15 2 1.681198e+09
0.29922536 -2.4361413 -0.38368681 19 3 1.681198e+09
-0.11278771 -1.9684805 -0.51859415 66 0 1.681198e+09
0.30285618 -2.4447987 -0.55984271 19 1 1.681198e+09
-1.5411944 -26.202314 6.0420337 23 14 1.681198e+09
3.4067421 -27.118719 7.3040509 28 15 1.681198e+09
-1.6047603 -27.281588 4.3131485 29 12 1.681198e+09
0.59696639 -4.8647661 0.94508618 44 13 1.681198e+09
-1.6166124 -27.320242 2.3913357 27 10 1.681198e+09
0.38963997 -3.2296617 0.39459962 6 11 1.681198e+09
-0.14027309 -2.3829551 0.041056786 173 8 1.681198e+09
0.28636113 -2.4044161 0.12508292 35 9 1.681198e+09
-0.14272456 -2.409929 -0.12510566 24 6 1.681198e+09
0.28587666 -2.4074066 -0.041711248 24 7 1.681198e+09
-0.14415821 -2.4127972 -0.29207063 19 4 1.681198e+09
0.28720972 -2.4185555 -0.20962629 22 5 1.681198e+09
-0.14621112 -2.4258683 -0.46473786 15 2 1.681198e+09
0.29101685 -2.4396219 -0.38407829 17 3 1.681198e+09
-0.11936094 -1.9632541 -0.5173009 68 0 1.681198e+09
0.29432037 -2.4458408 -0.55984271 19 1 1.681198e+09
-1.6366121 -26.186764 6.0397878 23 14 1.681198e+09
3.3082023 -27.138216 7.3059897 27 15 1.681198e+09
-1.6934854 -27.095608 4.2846618 24 12 1.681198e+09
0.6332044 -5.317708 1.0332562 8 13 1.681198e+09
-1.709161 -27.269691 2.3874137 28 10 1.681198e+09
0.39063171 -3.334497 0.40737769 2 11 1.681198e+09
-0.14890508 -2.3874402 0.041144043 166 8 1.681198e+09
0.27854896 -2.4103603 0.12534462 35 9 1.681198e+09
-0.15129396 -2.4119077 -0.12523694 23 6 1.681198e+09
0.27747148 -2.4083898 -0.041711248 24 7 1.681198e+09
-0.15257956 -2.4122794 -0.29207063 17 4 1.681198e+09
0.27789649 -2.4121225 -0.20897393 23 5 1.681198e+09
-0.15530987 -2.4351399 -0.46664253 15 2 1.681198e+09
0.28249919 -2.440623 -0.38407829 19 3 1.681198e+09
-0.12668453 -1.970055 -0.51924074 61 0 1.681198e+09
0.28578103 -2.4468534 -0.55984271 20 1 1.681198e+09
-1.7224803 -26.166609 6.0364184 8 14 1.681198e+09
3.2159131 -27.12985 7.3008199 28 15 1.681198e+09
-1.7823541 -27.075062 4.2823205 1 12 1.681198e+09
0.62181908 -5.3734059 1.0437412 7 13 1.681198e+09
-1.7987424 -27.17907 2.3800054 27 10 1.681198e+09
0.64603382 -5.6580329 0.69397205 3 11 1.681198e+09
-0.15665564 -2.3844395 0.041100416 160 8 1.681198e+09
0.2699883 -2.4063096 0.12508292 35 9 1.681198e+09
-0.15962397 -2.4163747 -0.12549949 22 6 1.681198e+09
0.26849881 -2.4043765 -0.041623987 24 7 1.681198e+09
-0.16057813 -2.4117601 -0.29207063 16 4 1.681198e+09
0.27074057 -2.4204545 -0.20962629 22 5 1.681198e+09
-0.16330963 -2.4272368 -0.46521398 14 2 1.681198e+09
0.27369821 -2.4391413 -0.38368681 19 3 1.681198e+09
-0.13339503 -1.9671913 -0.51859415 61 0 1.681198e+09
0.27794456 -2.4502077 -0.56040424 19 1 1.681198e+09
-1.8146517 -26.172586 6.0392261 8 14 1.681198e+09
3.1209164 -27.138514 7.3001742 29 15 1.681198e+09
nan nan nan 0 12 1.681198e+09
0.60719401 -5.4121237 1.0508901 6 13 1.681198e+09
nan nan nan 0 10 1.681198e+09
0.65349269 -5.9044018 0.72409183 3 11 1.681198e+09
-0.16532665 -2.3888652 0.041187678 154 8 1.681198e+09
0.26186141 -2.409719 0.12521377 36 9 1.681198e+09
-0.16805771 -2.4158025 -0.12549949 21 6 1.681198e+09
0.2610718 -2.4102225 -0.041711248 25 7 1.681198e+09
-0.16899578 -2.4111848 -0.29207063 16 4 1.681198e+09
0.26201716 -2.4189095 -0.20940885 23 5 1.681198e+09
-0.17160627 -2.4242043 -0.46473786 14 2 1.681198e+09
0.26491094 -2.4376271 -0.38329527 17 3 1.681198e+09
-0.14043826 -1.9739646 -0.52053404 60 0 1.681198e+09
0.26884866 -2.4463212 -0.55928123 19 1 1.681198e+09
-1.9036973 -26.134508 6.0319262 7 14 1.681198e+09
3.0237548 -27.127642 7.2943578 30 15 1.681198e+09
nan nan nan 0 12 1.681198e+09
0.61448169 -5.6532869 1.0975963 3 13 1.681198e+09
nan nan nan 0 10 1.681198e+09
0.66163558 -6.1730919 0.75694978 4 11 1.681198e+09
-0.17366435 -2.3882735 0.041187678 140 8 1.681198e+09
0.25318262 -2.4081359 0.12508292 36 9 1.681198e+09
-0.1764894 -2.4152012 -0.12549949 22 6 1.681198e+09
0.25212663 -2.4061484 -0.041623987 25 7 1.681198e+09
-0.17796305 -2.418004 -0.29298338 16 4 1.681198e+09
0.25357199 -2.4198093 -0.20940885 23 5 1.681198e+09
-0.18043445 -2.4284852 -0.46569017 14 2 1.681198e+09
0.25666323 -2.4409924 -0.38368681 19 3 1.681198e+09
-0.14714591 -1.971054 -0.51988739 60 0 1.681198e+09
0.26056999 -2.4496663 -0.55984271 19 1 1.681198e+09
-1.9962114 -26.144707 6.0358567 8 14 1.681198e+09
2.9282644 -27.130825 7.2924194 29 15 1.681198e+09
nan nan nan 0 12 1.681198e+09
0.61673021 -5.8628387 1.1381068 8 13 1.681198e+09
-2.088217 -27.285749 2.3911178 1 10 1.681198e+09
0.66945618 -6.4567165 0.79163313 4 11 1.681198e+09
-0.18238348 -2.392637 0.041274939 138 8 1.681198e+09
0.24451807 -2.406522 0.12495209 37 9 1.681198e+09
-0.18511137 -2.4170599 -0.12563077 21 6 1.681198e+09
0.24330597 -2.4070563 -0.041623987 25 7 1.681198e+09
-0.18620984 -2.4148941 -0.29267913 15 4 1.681198e+09
0.24444605 -2.4182448 -0.2091914 23 5 1.681198e+09
-0.18891032 -2.4278402 -0.46569017 15 2 1.681198e+09
0.24763255 -2.4369614 -0.38290375 17 3 1.681198e+09
-0.15475066 -1.9753162 -0.52118063 61 0 1.681198e+09
0.2513364 -2.4481823 -0.55928123 19 1 1.681198e+09
-2.0907609 -26.17886 6.045403 7 14 1.681198e+09
2.8142011 -26.955933 7.2426615 12 15 1.681198e+09
-2.163749 -27.091845 4.2893448 1 12 1.681198e+09
2.7592049 -26.975485 5.2592163 12 13 1.681198e+09
-2.1840253 -27.225779 2.3865421 1 10 1.681198e+09
nan nan nan 0 11 1.681198e+09
-0.19115169 -2.3919525 0.041274939 135 8 1.681198e+09
0.23569608 -2.407402 0.12495209 38 9 1.681198e+09
-0.19376756 -2.4138765 -0.12549949 20 6 1.681198e+09
0.23465487 -2.4054036 -0.041580357 27 7 1.681198e+09
-0.19526121 -2.4166687 -0.29298338 15 4 1.681198e+09
0.23624982 -2.421562 -0.20940885 23 5 1.681198e+09
-0.1975846 -2.4296122 -0.46616635 14 2 1.681198e+09
0.23912445 -2.4378107 -0.38290375 19 3 1.681198e+09
-0.16164485 -1.9747639 -0.52118063 60 0 1.681198e+09
0.2427891 -2.4490447 -0.55928123 19 1 1.681198e+09
-2.1866972 -26.171021 6.045403 7 14 1.681198e+09
2.7313805 -27.124653 7.2853112 30 15 1.681198e+09
-2.2710559 -27.179701 4.3045635 1 12 1.681198e+09
2.6694813 -27.078224 5.2773271 15 13 1.681198e+09
-2.2896333 -27.287083 2.392643 2 10 1.681198e+09
nan nan nan 0 11 1.681198e+09
-0.19991918 -2.3962522 0.0413622 120 8 1.681198e+09
0.22687092 -2.4082496 0.12495209 39 9 1.681198e+09
-0.20261355 -2.4131501 -0.12549949 19 6 1.681198e+09
0.22583707 -2.4062476 -0.041580357 27 7 1.681198e+09
-0.20411743 -2.4159369 -0.29298338 15 4 1.681198e+09
0.22689794 -2.4174531 -0.20897393 23 5 1.681198e+09
-0.20712222 -2.4312809 -0.46664253 12 2 1.681198e+09
0.22999839 -2.4411688 -0.38329527 19 3 1.681198e+09
-0.16922618 -1.9741286 -0.52118063 62 0 1.681198e+09
0.23357525 -2.4474933 -0.55871964 19 1 1.681198e+09
-2.2826042 -26.162832 6.045403 7 14 1.681198e+09
2.6312449 -27.127272 7.2833724 30 15 1.681198e+09
-2.3713036 -27.178576 4.3057342 1 12 1.681198e+09
2.56178 -27.049183 5.2697015 21 13 1.681198e+09
-2.3831053 -27.204075 2.3861063 2 10 1.681198e+09
0.71620929 -7.7262101 0.94709992 90 11 1.681198e+09
-0.20889948 -2.3929772 0.041318569 125 8 1.681198e+09
0.21827246 -2.4115508 0.12508292 39 9 1.681198e+09
-0.21145684 -2.4123912 -0.12549949 17 6 1.681198e+09
0.21682481 -2.4095862 -0.041623987 28 7 1.681198e+09
-0.21319062 -2.417644 -0.29328761 15 4 1.681198e+09
0.21784182 -2.4207864 -0.2091914 23 5 1.681198e+09
-0.21559386 -2.4256165 -0.46569017 12 2 1.681198e+09
0.22082232 -2.4395368 -0.38290375 19 3 1.681198e+09
-0.17624342 -1.9710902 -0.52053404 68 0 1.681198e+09
0.22394913 -2.4459467 -0.5581581 19 1 1.681198e+09
-2.3857 -26.182989 6.0521412 7 14 1.681198e+09
2.5261669 -27.127558 7.2807875 30 15 1.681198e+09
-2.4736261 -27.147137 4.3022223 1 12 1.681198e+09
2.4626229 -27.058392 5.2697015 21 13 1.681198e+09
-2.4855161 -27.224922 2.388721 2 10 1.681198e+09
0.68921518 -7.7436113 0.94892538 73 11 1.681198e+09
-0.21835364 -2.399663 0.041449465 110 8 1.681198e+09
0.20899096 -2.407361 0.12482125 39 9 1.681198e+09
-0.22029725 -2.4116001 -0.12549949 16 6 1.681198e+09
0.2084125 -2.4103284 -0.041623987 28 7 1.681198e+09
