# .PCD v0.7 - Point Cloud Data file format
VERSION 0.7
FIELDS x y z intensity ring timestamp
SIZE 4 4 4 4 2 8
TYPE F F F F U F
COUNT 1 1 1 1 1 1
WIDTH 983
HEIGHT 1
VIEWPOINT 0 0 0 1 0 0 0
POINTS 983
DATA ascii
7.4205289 6.723762 -0.52470863 2 6 1.681198e+09
7.686801 10.002899 -0.21959488 39 7 1.681198e+09
5.1932855 4.7014046 -0.85461092 25 4 1.681198e+09
4.828537 6.2806091 -0.68867898 32 5 1.681198e+09
6.4609141 5.8422689 -1.6832461 43 2 1.681198e+09
4.2851496 5.5789633 -1.109951 17 3 1.681198e+09
4.8165593 4.3498678 -1.7284316 25 0 1.681198e+09
4.9020443 6.3969932 -1.8496709 12 1 1.681198e+09
7.7672081 7.0008774 2.4022138 59 14 1.681198e+09
7.7121658 10.064803 3.3835275 47 15 1.681198e+09
7.7701139 7.003479 1.6475266 69 12 1.681198e+09
7.7054253 10.012573 2.4468343 51 13 1.681198e+09
7.7654552 6.9968181 0.91143113 62 10 1.681198e+09
7.6972704 9.9731712 1.5403684 58 11 1.681198e+09
7.7684269 6.9945755 0.18185407 66 8 1.681198e+09
6.0416374 7.8094897 0.51564002 40 9 1.681198e+09
7.5014954 6.7495747 -0.5287782 2 6 1.681198e+09
6.2627425 8.089736 -0.17797092 9 7 1.681198e+09
5.2355061 4.7064662 -0.85887027 20 4 1.681198e+09
4.8397646 6.2499251 -0.68715674 30 5 1.681198e+09
6.4593515 5.8000083 -1.6775322 42 2 1.681198e+09
4.3015785 5.5600634 -1.1091681 20 3 1.681198e+09
4.8425031 4.3426991 -1.7323114 27 0 1.681198e+09
4.9183941 6.3721256 -1.8474247 13 1 1.681198e+09
7.7649679 6.9523363 2.3943524 58 14 1.681198e+09
7.7115846 9.9951811 3.3686647 47 15 1.681198e+09
7.771215 6.957911 1.642844 68 12 1.681198e+09
7.7055316 9.9442749 2.4363494 53 13 1.681198e+09
7.769412 6.951405 0.90903437 62 10 1.681198e+09
7.6970239 9.9011707 1.5333709 58 11 1.681198e+09
7.765492 6.9454517 0.18124324 64 8 1.681198e+09
6.0859008 7.8130555 0.51721007 40 9 1.681198e+09
7.5573473 6.7546024 -0.53114116 2 6 1.681198e+09
6.2341037 7.9948659 -0.17635655 25 7 1.681198e+09
5.2899613 4.7237778 -0.86525929 6 4 1.681198e+09
4.8466916 6.2161574 -0.68519968 29 5 1.681198e+09
6.457572 5.7578301 -1.6718183 40 2 1.681198e+09
4.3164115 5.5391684 -1.1079935 24 3 1.681198e+09
4.8846912 4.3498521 -1.7420107 25 0 1.681198e+09
4.9409919 6.3577051 -1.8479863 10 1 1.681198e+09
7.7709808 6.9090056 2.3887372 62 14 1.681198e+09
7.7182851 9.9319601 3.3563869 52 15 1.681198e+09
7.771461 6.9094167 1.637771 67 12 1.681198e+09
7.710011 9.8786116 2.4268174 53 13 1.681198e+09
7.7719417 6.9074078 0.90663767 61 10 1.681198e+09
7.7009583 9.8351564 1.5272862 57 11 1.681198e+09
7.7709966 6.9017062 0.18080692 65 8 1.681198e+09
7.725656 9.8490248 0.65419942 39 9 1.681198e+09
7.5939522 6.739779 -0.53206009 2 6 1.681198e+09
6.2343564 7.9407139 -0.17561483 29 7 1.681198e+09
5.3454161 4.7398467 -0.87164837 2 4 1.681198e+09
4.8637486 6.1933227 -0.68454731 12 5 1.681198e+09
6.468441 5.7271209 -1.6694373 42 2 1.681198e+09
4.3281045 5.5143504 -1.1060359 30 3 1.681198e+09
4.9298463 4.3608222 -1.7530034 21 0 1.681198e+09
nan nan nan 0 1 1.681198e+09
7.7713051 6.8608823 2.3814373 61 14 1.681198e+09
7.7157106 9.8574018 3.3402317 47 15 1.681198e+09
7.775167 6.8642745 1.6334786 68 12 1.681198e+09
7.7065477 9.8033905 2.4149024 52 13 1.681198e+09
7.7717271 6.8588166 0.90380508 61 10 1.681198e+09
7.7045245 9.7692366 1.5212014 58 11 1.681198e+09
7.7687898 6.8513961 0.18019609 65 8 1.681198e+09
7.6934676 9.7377377 0.64857334 49 9 1.681198e+09
7.6811228 6.7693419 -0.53652346 8 6 1.681198e+09
6.2248468 7.8718309 -0.17456768 31 7 1.681198e+09
nan nan nan 0 4 1.681198e+09
4.8791623 6.1684899 -0.68367749 10 5 1.681198e+09
6.4736457 5.6915464 -1.6656281 42 2 1.681198e+09
4.3381472 5.4875813 -1.1036867 32 3 1.681198e+09
nan nan nan 0 0 1.681198e+09
4.4652772 5.6627545 -1.6542594 2 1 1.681198e+09
7.7713881 6.81284 2.3741374 61 14 1.681198e+09
7.7201829 9.7924662 3.3273077 53 15 1.681198e+09
7.7712231 6.8126788 1.6276252 67 12 1.681198e+09
7.7117901 9.7398634 2.4058473 52 13 1.681198e+09
7.7712679 6.8103123 0.90097249 64 10 1.681198e+09
7.7077246 9.7034111 1.5151165 59 11 1.681198e+09
7.762567 6.7978926 0.17949799 65 8 1.681198e+09
7.7009969 9.6776037 0.64634901 54 9 1.681198e+09
7.6783991 6.7194757 -0.53468561 10 6 1.681198e+09
6.2536569 7.8489628 -0.17456768 35 7 1.681198e+09
7.3029127 6.3842535 -1.1850159 1 4 1.681198e+09
4.895534 6.1427717 -0.68280768 10 5 1.681198e+09
6.4694347 5.6479368 -1.6594378 42 2 1.681198e+09
4.3603492 5.4762702 -1.1044698 4 3 1.681198e+09
5.166657 4.504715 -1.8260722 7 0 1.681198e+09
4.4875164 5.6482587 -1.6548209 2 1 1.681198e+09
7.7675567 6.7616825 2.3657143 58 14 1.681198e+09
7.713788 9.7143774 3.30986 56 15 1.681198e+09
7.776329 6.7693005 1.623723 66 12 1.681198e+09
7.7120934 9.6706581 2.3953621 56 13 1.681198e+09
7.7679882 6.7572703 0.89770418 61 10 1.681198e+09
7.7059116 9.6318674 1.508119 57 11 1.681198e+09
7.7742229 6.7579184 0.17919257 67 8 1.681198e+09
7.6989527 9.6025524 0.64320886 59 9 1.681198e+09
7.7010899 6.6896505 -0.5345543 10 6 1.681198e+09
6.3107247 7.86414 -0.17539668 30 7 1.681198e+09
7.2794023 6.3167944 -1.1774099 4 4 1.681198e+09
4.9060416 6.1120439 -0.6812855 10 5 1.681198e+09
6.4742727 5.612462 -1.6556286 40 2 1.681198e+09
4.3655467 5.4436707 -1.1009462 2 3 1.681198e+09
5.1823497 4.4866529 -1.8260722 7 0 1.681198e+09
5.0151668 6.2681894 -1.842371 9 1 1.681198e+09
7.7664771 6.7108736 2.3578532 57 14 1.681198e+09
7.719182 9.6483126 3.2969363 53 15 1.681198e+09
7.7805309 6.7229972 1.6194305 62 12 1.681198e+09
7.7167578 9.6040535 2.3858302 53 13 1.681198e+09
7.7745628 6.7154641 0.89574319 60 10 1.681198e+09
7.7130299 9.5720539 1.5029469 54 11 1.681198e+09
7.7712708 6.7078791 0.17858174 65 8 1.681198e+09
7.7057729 9.5425882 0.64098459 51 9 1.681198e+09
7.7225046 6.661098 -0.53442305 8 6 1.681198e+09
6.3711147 7.8829036 -0.17631292 28 7 1.681198e+09
7.2600441 6.2557178 -1.1707165 4 4 1.681198e+09
4.9195232 6.0851922 -0.68019819 10 5 1.681198e+09
5.5710855 4.7958679 -1.4194503 36 2 1.681198e+09
4.3922734 5.4380088 -1.1029037 10 3 1.681198e+09
5.199811 4.470109 -1.8267188 7 0 1.681198e+09
5.0538182 6.2715201 -1.8485478 12 1 1.681198e+09
7.7683516 6.6676331 2.3516762 59 14 1.681198e+09
7.722363 9.586915 3.2846582 53 15 1.681198e+09
7.7784195 6.6762552 1.6143576 62 12 1.681198e+09
7.7084508 9.5287886 2.3734388 52 13 1.681198e+09
7.7790494 6.6720748 0.89356422 62 10 1.681198e+09
7.7088852 9.4988155 1.4956452 56 11 1.681198e+09
7.7706971 6.6625514 0.17805816 66 8 1.681198e+09
7.7058907 9.4782276 0.63836777 57 9 1.681198e+09
7.7312775 6.624084 -0.53350413 9 6 1.681198e+09
6.4190946 7.8858271 -0.17688014 27 7 1.681198e+09
7.276978 6.2283821 -1.1701081 4 4 1.681198e+09
4.9208231 6.0456557 -0.67758876 10 5 1.681198e+09
5.5430098 4.738131 -1.4080223 30 2 1.681198e+09
4.4205704 5.4341426 -1.1052529 13 3 1.681198e+09
5.2172198 4.4534988 -1.8273654 8 0 1.681198e+09
5.0776553 6.258512 -1.8496709 12 1 1.681198e+09
7.7730341 6.6246767 2.346061 61 14 1.681198e+09
7.7223234 9.5186291 3.2704418 52 15 1.681198e+09
7.7753611 6.6266432 1.6088945 64 12 1.681198e+09
7.7137756 9.4675655 2.3648601 53 13 1.681198e+09
7.7726922 6.6220202 0.89029592 62 10 1.681198e+09
7.7090321 9.4314899 1.4892561 56 11 1.681198e+09
7.7710638 6.6159458 0.1775346 71 8 1.681198e+09
7.7041483 9.4087629 0.63548934 57 9 1.681198e+09
7.72963 6.5760303 -0.53179753 12 6 1.681198e+09
4.7571464 5.8028207 -0.13036947 6 7 1.681198e+09
7.2797637 6.1868768 -1.1670657 6 4 1.681198e+09
4.9371629 6.0226607 -0.67693639 10 5 1.681198e+09
nan nan nan 0 2 1.681198e+09
4.4113679 5.3842802 -1.0982056 10 3 1.681198e+09
5.2135363 4.4205604 -1.8208991 8 0 1.681198e+09
5.102551 6.2445245 -1.850794 15 1 1.681198e+09
7.7719331 6.5770493 2.3387611 62 14 1.681198e+09
7.7234273 9.4523296 3.2568712 52 15 1.681198e+09
7.7758217 6.5803232 1.6042118 65 12 1.681198e+09
7.7109871 9.3969336 2.3538985 53 13 1.681198e+09
7.7748418 6.577158 0.88789916 65 10 1.681198e+09
7.713532 9.3700285 1.4837798 57 11 1.681198e+09
7.7692904 6.5678048 0.17696738 72 8 1.681198e+09
7.7115412 9.3509865 0.63339591 57 9 1.681198e+09
7.7506304 6.5473986 -0.53166628 10 6 1.681198e+09
7.7273617 9.3635302 -0.21130501 34 7 1.681198e+09
7.2520013 6.1198277 -1.1591554 6 4 1.681198e+09
4.9423108 5.9861755 -0.67476183 12 5 1.681198e+09
5.8462443 4.9270048 -1.4765903 24 2 1.681198e+09
4.4097219 5.3440771 -1.0931158 7 3 1.681198e+09
5.2363262 4.4085541 -1.8234856 9 0 1.681198e+09
5.1181297 6.2191477 -1.8485478 10 1 1.681198e+09
7.7773309 6.5328541 2.3331459 62 14 1.681198e+09
7.7319384 9.392252 3.2458858 54 15 1.681198e+09
7.7790866 6.5343122 1.5999193 65 12 1.681198e+09
7.7156796 9.3326588 2.3448434 53 13 1.681198e+09
7.7721901 6.5262012 0.88484871 62 10 1.681198e+09
7.7097821 9.2990952 1.4767822 56 11 1.681198e+09
7.7703295 6.5200086 0.17644382 67 8 1.681198e+09
7.7058949 9.2746382 0.63012493 53 9 1.681198e+09
7.7382226 6.4884758 -0.529172 9 6 1.681198e+09
7.729682 9.2966919 -0.21043238 32 7 1.681198e+09
7.2857985 6.1027651 -1.1609808 2 4 1.681198e+09
4.9578524 5.9603581 -0.67389202 10 5 1.681198e+09
5.8521118 4.89712 -1.4737332 28 2 1.681198e+09
4.420465 5.3191514 -1.0911582 4 3 1.681198e+09
5.2543025 4.3908801 -1.8241322 9 0 1.681198e+09
5.1377821 6.1965942 -1.8474247 10 1 1.681198e+09
7.7765031 6.4883037 2.3264077 60 14 1.681198e+09
7.7245326 9.3200598 3.2297308 56 15 1.681198e+09
7.7741637 6.4863372 1.5944562 64 12 1.681198e+09
7.7151999 9.2692842 2.3353114 53 13 1.681198e+09
7.7777057 6.4846802 0.88288772 64 10 1.681198e+09
7.710402 9.2340212 1.4706974 54 11 1.681198e+09
7.7746239 6.4798045 0.17605114 68 8 1.681198e+09
7.7077875 9.2145519 0.62776977 56 9 1.681198e+09
7.7520227 6.4563899 -0.52864695 8 6 1.681198e+09
7.7332129 9.2351465 -0.20964701 31 7 1.681198e+09
7.2239599 6.0103421 -1.1478986 1 4 1.681198e+09
4.9616113 5.9247808 -0.67171746 12 5 1.681198e+09
5.8502893 4.8609815 -1.4689715 29 2 1.681198e+09
4.4152527 5.2752709 -1.0852854 4 3 1.681198e+09
5.2677393 4.3709712 -1.8234856 9 0 1.681198e+09
5.1583023 6.1795225 -1.8474247 10 1 1.681198e+09
7.7784653 6.4440269 2.3202307 64 14 1.681198e+09
7.7260804 9.2559462 3.2168067 53 15 1.681198e+09
7.7758369 6.4418349 1.5901637 65 12 1.681198e+09
7.7207189 9.2103128 2.3272092 56 13 1.681198e+09
7.7799821 6.4429712 0.88070875 64 10 1.681198e+09
7.7170458 9.1766539 1.4658296 57 11 1.681198e+09
7.7721567 6.4319129 0.17548393 71 8 1.681198e+09
7.7077503 9.1493912 0.62515295 54 9 1.681198e+09
7.7437253 6.4038401 -0.52654654 8 6 1.681198e+09
7.7283554 9.1641321 -0.20864351 32 7 1.681198e+09
7.2506356 5.9898291 -1.1488112 6 4 1.681198e+09
4.9656391 5.8856063 -0.66932547 12 5 1.681198e+09
5.83882 4.8171096 -1.4618291 29 2 1.681198e+09
4.4225097 5.246604 -1.0825448 4 3 1.681198e+09
5.2866926 4.3556275 -1.8247789 9 0 1.681198e+09
5.1668148 6.1437869 -1.842371 9 1 1.681198e+09
7.7858567 6.4044571 2.3157384 64 14 1.681198e+09
7.7303834 9.1956348 3.2051749 52 15 1.681198e+09
7.7715735 6.3926964 1.5847006 62 12 1.681198e+09
7.7211733 9.1457901 2.3176773 53 13 1.681198e+09
7.7823782 6.3970203 0.87831193 62 10 1.681198e+09
7.7153687 9.1098824 1.4594405 57 11 1.681198e+09
7.7744298 6.3859353 0.17500401 69 8 1.681198e+09
7.7105532 9.0849028 0.62266701 56 9 1.681198e+09
7.753634 6.3643289 -0.52562761 12 6 1.681198e+09
7.7376542 9.1104193 -0.20803268 31 7 1.681198e+09
7.2591076 5.9522033 -1.1466815 7 4 1.681198e+09
4.9732623 5.8530459 -0.66758585 12 5 1.681198e+09
5.8612957 4.8013635 -1.4632576 31 2 1.681198e+09
4.4216361 5.2085328 -1.0778466 6 3 1.681198e+09
5.2981253 4.3340893 -1.8234856 9 0 1.681198e+09
5.1913762 6.1294336 -1.8434941 10 1 1.681198e+09
7.7847443 6.3558536 2.3084388 61 14 1.681198e+09
7.7297134 9.1266832 3.1909585 53 15 1.681198e+09
7.6533847 6.2486272 1.5558239 13 12 1.681198e+09
7.7260361 9.0837688 2.3090987 58 13 1.681198e+09
7.7834339 6.3524976 0.87591523 66 10 1.681198e+09
7.7181177 9.0456657 1.45366 57 11 1.681198e+09
7.7792377 6.344543 0.17461132 69 8 1.681198e+09
7.714654 9.0256596 0.62044275 57 9 1.681198e+09
7.7506404 6.3167253 -0.52392101 12 6 1.681198e+09
7.7401757 9.0491514 -0.20724732 31 7 1.681198e+09
7.2663674 5.9158635 -1.1445519 6 4 1.681198e+09
4.9726272 5.8110385 -0.66475892 16 5 1.681198e+09
5.857904 4.7628226 -1.4580197 31 2 1.681198e+09
4.4294715 5.1791492 -1.075106 7 3 1.681198e+09
5.3188472 4.3201356 -1.8254255 9 0 1.681198e+09
5.2016811 6.0982943 -1.8395634 10 1 1.681198e+09
7.7879553 6.3133035 2.3028233 62 14 1.681198e+09
7.7317605 9.0647221 3.1786807 56 15 1.681198e+09
7.7710743 6.2996078 1.5753351 46 12 1.681198e+09
7.720994 9.0138617 2.2981369 57 13 1.681198e+09
7.7823386 6.3064775 0.87330049 67 10 1.681198e+09
7.6882195 8.9471283 1.4420989 54 11 1.681198e+09
7.7780218 6.2984767 0.17408773 67 8 1.681198e+09
nan nan nan 0 9 1.681198e+09
7.7532325 6.273931 -0.52260822 9 6 1.681198e+09
4.7598882 5.5229759 -0.12666082 7 7 1.681198e+09
7.2560925 5.8655105 -1.139684 7 4 1.681198e+09
4.9815083 5.7804327 -0.66323674 17 5 1.681198e+09
5.8649435 4.7346401 -1.4556389 31 2 1.681198e+09
4.4265919 5.1393209 -1.0700163 9 3 1.681198e+09
5.3301339 4.2985115 -1.8241322 9 0 1.681198e+09
5.1737604 6.0227861 -1.8221562 9 1 1.681198e+09
7.7833734 6.2646999 2.2949622 61 14 1.681198e+09
7.7130213 8.9790363 3.1580021 45 15 1.681198e+09
7.7853217 6.2662516 1.5737742 61 12 1.681198e+09
7.0618215 8.1856699 2.092725 23 13 1.681198e+09
7.7887802 6.2667866 0.87155747 67 10 1.681198e+09
7.0541539 8.1537724 1.3176645 36 11 1.681198e+09
7.7804775 6.2556291 0.17365143 69 8 1.681198e+09
7.0680566 8.1526041 0.56365824 40 9 1.681198e+09
7.753675 6.2296324 -0.52116424 7 6 1.681198e+09
7.1433444 8.2337179 -0.18966401 20 7 1.681198e+09
7.2591033 5.8261695 -1.1369458 6 4 1.681198e+09
4.9771852 5.7347798 -0.65997493 20 5 1.681198e+09
5.8595462 4.6982822 -1.4504011 31 2 1.681198e+09
4.4290628 5.1078138 -1.0664927 9 3 1.681198e+09
5.3394499 4.275353 -1.8221924 9 0 1.681198e+09
5.1326337 5.9328008 -1.8002564 9 1 1.681198e+09
7.7812672 6.2206049 2.2882237 64 14 1.681198e+09
7.0969462 8.2060251 2.8937044 28 15 1.681198e+09
7.7867675 6.2249842 1.569872 64 12 1.681198e+09
7.1050119 8.1807423 2.0974908 30 13 1.681198e+09
7.7872539 6.220911 0.86894274 66 10 1.681198e+09
7.1167879 8.1684027 1.3240536 39 11 1.681198e+09
7.7777371 6.2110806 0.17312786 69 8 1.681198e+09
7.1213059 8.1592264 0.56575167 43 9 1.681198e+09
7.7508707 6.1852036 -0.51958889 6 6 1.681198e+09
7.1868367 8.2256794 -0.19005668 20 7 1.681198e+09
6.4283876 5.1247368 -1.0036886 22 4 1.681198e+09
4.9797997 5.6994786 -0.65780038 19 5 1.681198e+09
5.877831 4.679328 -1.4508772 32 2 1.681198e+09
4.4273915 5.0699916 -1.0617944 15 3 1.681198e+09
5.3619037 4.2626982 -1.8247789 9 0 1.681198e+09
5.1075106 5.8642836 -1.7845337 13 1 1.681198e+09
7.7838497 6.1782622 2.2826085 64 14 1.681198e+09
7.1445713 8.203064 2.9014587 30 15 1.681198e+09
7.7871704 6.1808815 1.5655795 64 12 1.681198e+09
7.1577487 8.1836109 2.1046398 34 13 1.681198e+09
7.7805228 6.1733861 0.86589229 66 10 1.681198e+09
7.1599798 8.1603041 1.3267919 39 11 1.681198e+09
7.7758627 6.1652613 0.17260428 72 8 1.681198e+09
7.1678658 8.154954 0.56719089 43 9 1.681198e+09
7.7469721 6.1379604 -0.51788235 6 6 1.681198e+09
7.2303596 8.2174387 -0.19044937 22 7 1.681198e+09
6.3995337 5.0653157 -0.99638689 27 4 1.681198e+09
4.9776349 5.6550021 -0.65475601 21 5 1.681198e+09
5.8748713 4.6435671 -1.4461156 31 2 1.681198e+09
4.4352865 5.0433745 -1.0594454 17 3 1.681198e+09
5.3748546 4.2424598 -1.8241322 9 0 1.681198e+09
5.0438728 5.7484212 -1.7547729 23 1 1.681198e+09
7.7862329 6.1359792 2.2769933 62 14 1.681198e+09
7.1922626 8.1998701 2.9092133 32 15 1.681198e+09
7.7854223 6.135325 1.5608969 59 12 1.681198e+09
7.1862707 8.158576 2.1046398 31 13 1.681198e+09
7.7815719 6.1278825 0.86349547 66 10 1.681198e+09
7.1687131 8.1129389 1.3231409 36 11 1.681198e+09
7.7787614 6.1212654 0.17216797 71 8 1.681198e+09
7.1679301 8.0949717 0.56483579 38 9 1.681198e+09
7.7537146 6.0971818 -0.51683211 7 6 1.681198e+09
4.7619743 5.3717608 -0.12469744 8 7 1.681198e+09
6.3907323 5.020371 -0.99212754 35 4 1.681198e+09
4.9775329 5.6152158 -0.65214658 22 5 1.681198e+09
5.8891134 4.6215172 -1.4456394 30 2 1.681198e+09
4.4332342 5.0056663 -1.0547471 19 3 1.681198e+09
5.380125 4.2162271 -1.8208991 9 0 1.681198e+09
4.9833083 5.6394539 -1.7266965 20 1 1.681198e+09
7.7894783 6.0923958 2.271378 61 14 1.681198e+09
7.1966949 8.1444874 2.898874 29 15 1.681198e+09
7.7884026 6.0915384 1.5569946 64 12 1.681198e+09
7.1933322 8.106473 2.0979674 28 13 1.681198e+09
7.7872171 6.0884142 0.86175239 66 10 1.681198e+09
7.170609 8.0581961 1.3182731 35 11 1.681198e+09
7.7882609 6.0848436 0.17190619 71 8 1.681198e+09
7.1778731 8.0493965 0.56339651 38 9 1.681198e+09
7.7434602 6.0455027 -0.51473171 6 6 1.681198e+09
4.7607346 5.3327165 -0.12417386 8 7 1.681198e+09
6.4003897 4.9919295 -0.99091053 39 4 1.681198e+09
4.9738989 5.5717807 -0.64910215 22 5 1.681198e+09
5.8877826 4.5873609 -1.4413539 30 2 1.681198e+09
4.4408269 4.9790983 -1.052398 21 3 1.681198e+09
5.3986225 4.200386 -1.8221924 9 0 1.681198e+09
4.9738331 5.5892487 -1.716589 24 1 1.681198e+09
7.7865486 6.0486012 2.2646396 61 14 1.681198e+09
7.1979938 8.0916948 2.8885348 25 15 1.681198e+09
7.7871065 6.0490193 1.5527023 25 12 1.681198e+09
7.1874914 8.0459557 2.0884356 28 13 1.681198e+09
7.7907128 6.0474534 0.8597914 67 10 1.681198e+09
7.1722093 8.0035372 1.3134052 35 11 1.681198e+09
7.7846956 6.0405989 0.17138262 69 8 1.681198e+09
7.1761885 7.9939547 0.56117225 39 9 1.681198e+09
7.7536001 6.0121446 -0.51407534 13 6 1.681198e+09
4.7609501 5.2956066 -0.12369392 8 7 1.681198e+09
6.4149466 4.9691591 -0.99060625 44 4 1.681198e+09
4.9757128 5.5367227 -0.64692765 22 5 1.681198e+09
5.8921103 4.5577741 -1.4384969 34 2 1.681198e+09
4.4466395 4.9506993 -1.0496575 27 3 1.681198e+09
5.4132519 4.1815157 -1.8221924 9 0 1.681198e+09
4.9712229 5.5491228 -1.7092891 29 1 1.681198e+09
7.7921815 6.0094857 2.2601473 66 14 1.681198e+09
7.1988134 8.0359287 2.8775492 24 15 1.681198e+09
7.7866616 6.0052156 1.5484098 65 12 1.681198e+09
7.1892838 7.9916139 2.0808101 29 13 1.681198e+09
7.7850795 6.001822 0.85695881 62 10 1.681198e+09
7.1785021 7.9544959 1.3094501 35 11 1.681198e+09
7.7819691 5.9950876 0.17085905 68 8 1.681198e+09
7.178947 7.9410658 0.55920964 39 9 1.681198e+09
7.7507973 5.9667721 -0.51250005 9 6 1.681198e+09
4.7643189 5.26227 -0.12330125 9 7 1.681198e+09
6.4204493 4.9376626 -0.98878086 47 4 1.681198e+09
4.9725871 5.4925857 -0.64388329 23 5 1.681198e+09
5.9177184 4.544651 -1.4408778 32 2 1.681198e+09
4.4506531 4.9204893 -1.0465252 28 3 1.681198e+09
5.4316478 4.1655326 -1.8234856 9 0 1.681198e+09
4.967063 5.5037222 -1.7008662 30 1 1.681198e+09
7.786027 5.9615197 2.2522862 64 14 1.681198e+09
7.1993327 7.9802551 2.8665638 25 15 1.681198e+09
7.7879672 5.9629893 1.5445074 71 12 1.681198e+09
7.1924324 7.9391785 2.0736611 27 13 1.681198e+09
7.785265 5.9566045 0.85456204 65 10 1.681198e+09
7.1461725 7.8632541 1.2984974 36 11 1.681198e+09
7.7760859 5.9452744 0.17024823 74 8 1.681198e+09
7.1391149 7.8389921 0.55384523 39 9 1.681198e+09
7.7587242 5.9277163 -0.51158106 8 6 1.681198e+09
4.7691946 5.2308211 -0.1229522 9 7 1.681198e+09
6.4325843 4.9095817 -0.98786807 32 4 1.681198e+09
4.9749622 5.45678 -0.64170873 23 5 1.681198e+09
5.955018 4.5403295 -1.4461156 30 2 1.681198e+09
4.4511871 4.8866582 -1.04261 29 3 1.681198e+09
5.4730606 4.1670208 -1.8325385 7 0 1.681198e+09
4.9534974 5.450273 -1.6896356 30 1 1.681198e+09
7.792305 5.9211535 2.2477937 65 14 1.681198e+09
7.1457357 7.8626294 2.8336072 27 15 1.681198e+09
7.7901068 5.9194689 1.5406053 69 12 1.681198e+09
7.0726609 7.7495537 2.0307677 30 13 1.681198e+09
7.7822084 5.9113197 0.85194737 65 10 1.681198e+09
7.0627313 7.714335 1.2781134 37 11 1.681198e+09
7.7808609 5.9060068 0.16989917 74 8 1.681198e+09
7.0719824 7.710947 0.54651821 38 9 1.681198e+09
7.7634544 5.8885298 -0.51053089 6 6 1.681198e+09
4.7637734 5.1883488 -0.12234136 9 7 1.681198e+09
6.4299021 4.8721161 -0.98482573 29 4 1.681198e+09
4.9737806 5.4173532 -0.6390993 23 5 1.681198e+09
6.0048962 4.5436401 -1.4542104 28 2 1.681198e+09
4.4540544 4.8539267 -1.0390865 30 3 1.681198e+09
5.5010605 4.1580811 -1.8370649 6 0 1.681198e+09
4.9577003 5.4167666 -1.684582 29 1 1.681198e+09
7.7954206 5.8807163 2.2427399 65 14 1.681198e+09
7.0998011 7.7574363 2.804528 31 15 1.681198e+09
7.7969208 5.8818331 1.5378737 68 12 1.681198e+09
7.1162682 7.7428951 2.0355337 28 13 1.681198e+09
7.7888737 5.8736243 0.85042214 69 10 1.681198e+09
7.1165161 7.7188358 1.2829812 35 11 1.681198e+09
7.7834601 5.8652754 0.16950649 73 8 1.681198e+09
7.1242514 7.7137361 0.54848081 38 9 1.681198e+09
7.7600269 5.8433785 -0.5089556 6 6 1.681198e+09
4.7648969 5.1533246 -0.12190505 9 7 1.681198e+09
6.4290199 4.8362203 -0.98208755 29 4 1.681198e+09
4.9723849 5.3780017 -0.63648981 24 5 1.681198e+09
6.0540838 4.5477023 -1.4623052 27 2 1.681198e+09
4.4525514 4.8183889 -1.0347798 28 3 1.681198e+09
5.5271335 4.1475477 -1.8409445 1 0 1.681198e+09
4.9699783 5.3922586 -1.6823357 27 1 1.681198e+09
7.7983489 5.8403296 2.2376862 65 14 1.681198e+09
7.1530108 7.7610312 2.8148673 29 15 1.681198e+09
7.799614 5.8412614 1.5343617 69 12 1.681198e+09
7.1649132 7.7414322 2.0417295 28 13 1.681198e+09
7.7913837 5.8329706 0.84846115 71 10 1.681198e+09
7.1687298 7.7212358 1.2875448 32 11 1.681198e+09
7.7898746 5.8275909 0.16920106 75 8 1.681198e+09
7.1715279 7.7107668 0.55005091 38 9 1.681198e+09
7.7643776 5.8042998 -0.50790536 6 6 1.681198e+09
4.7658353 5.1183562 -0.12146875 10 7 1.681198e+09
6.4279661 4.8003902 -0.97934937 30 4 1.681198e+09
4.9775596 5.3460212 -0.63475019 23 5 1.681198e+09
6.0856638 4.5382752 -1.4661145 9 2 1.681198e+09
4.4558973 4.7883468 -1.0316476 29 3 1.681198e+09
5.5377035 4.1253443 -1.8396512 1 0 1.681198e+09
nan nan nan 0 1 1.681198e+09
7.7932706 5.7941818 2.2303863 67 14 1.681198e+09
7.2079754 7.7661195 2.8258529 30 15 1.681198e+09
7.7961731 5.7963238 1.5296791 67 12 1.681198e+09
7.2219963 7.748702 2.050308 28 13 1.681198e+09
7.7877078 5.7879152 0.84584647 71 10 1.681198e+09
7.2261286 7.7288055 1.2930211 32 11 1.681198e+09
7.7840772 5.7809944 0.16863386 77 8 1.681198e+09
7.229105 7.7184982 0.55240595 38 9 1.681198e+09
7.7605309 5.7593122 -0.50633007 6 6 1.681198e+09
4.7717128 5.0889168 -0.12116332 10 7 1.681198e+09
6.4327216 4.7690587 -0.97752404 34 4 1.681198e+09
4.9740601 5.3049812 -0.63192326 24 5 1.681198e+09
6.1409254 4.5462012 -1.4756379 15 2 1.681198e+09
4.4557137 4.7547355 -1.0277325 34 3 1.681198e+09
5.5947943 4.137569 -1.8538771 1 0 1.681198e+09
4.4140377 4.7216859 -1.4818705 30 1 1.681198e+09
7.7899241 5.7495871 2.2236481 67 14 1.681198e+09
7.2581158 7.7656231 2.8348997 29 15 1.681198e+09
7.7925129 5.751482 1.5249963 66 12 1.681198e+09
7.2641096 7.7395573 2.0545974 27 13 1.681198e+09
7.7958374 5.7518263 0.84453911 69 10 1.681198e+09
7.2734661 7.7252231 1.296672 34 11 1.681198e+09
7.7901249 5.7434072 0.16832845 76 8 1.681198e+09
7.2816868 7.7204719 0.55436862 38 9 1.681198e+09
7.7665153 5.7218242 -0.50541115 6 6 1.681198e+09
4.768868 5.0504074 -0.12063976 10 7 1.681198e+09
6.4353375 4.7362819 -0.97539425 32 4 1.681198e+09
4.980587 5.2749028 -0.63040107 24 5 1.681198e+09
6.1963153 4.5537968 -1.4851612 12 2 1.681198e+09
4.4722838 4.7391529 -1.0277325 35 3 1.681198e+09
5.5761037 4.0937266 -1.8428844 1 0 1.681198e+09
4.4071331 4.6813998 -1.4740092 27 1 1.681198e+09
7.8001199 5.7151628 2.2208405 67 14 1.681198e+09
7.3133044 7.7701492 2.8458853 34 15 1.681198e+09
7.7985973 5.7140326 1.5222647 67 12 1.681198e+09
7.37533 7.803369 2.0784271 36 13 1.681198e+09
7.795773 5.7098665 0.84236026 69 10 1.681198e+09
7.4693336 7.8781304 1.3267919 44 11 1.681198e+09
7.7939868 5.7043719 0.1679794 75 8 1.681198e+09
7.5509033 7.9503508 0.57281703 50 9 1.681198e+09
7.7683029 5.6814189 -0.50422966 6 6 1.681198e+09
4.764092 5.0101666 -0.12007254 12 7 1.681198e+09
6.4237757 4.6933022 -0.97113496 23 4 1.681198e+09
4.9749589 5.2322016 -0.62735671 24 5 1.681198e+09
6.3628812 4.6420379 -1.5213498 30 2 1.681198e+09
4.504096 4.7396326 -1.0312561 28 3 1.681198e+09
5.5884075 4.0728154 -1.8422378 1 0 1.681198e+09
4.4133987 4.6553721 -1.4706399 28 1 1.681198e+09
7.7963781 5.6707091 2.2141023 65 14 1.681198e+09
7.7223134 8.1478901 2.9945123 51 15 1.681198e+09
7.794529 5.6693501 1.5175821 69 12 1.681198e+09
7.7441435 8.1368141 2.1746991 58 13 1.681198e+09
7.7874532 5.6621203 0.83930981 71 10 1.681198e+09
7.7451439 8.1123533 1.3709066 58 11 1.681198e+09
7.7916036 5.6609731 0.16749947 74 8 1.681198e+09
7.7390194 8.0918036 0.58498514 61 9 1.681198e+09
7.7678814 5.6396036 -0.50291687 9 6 1.681198e+09
4.7660036 4.9772477 -0.11967988 12 7 1.681198e+09
6.4059658 4.646091 -0.96596283 25 4 1.681198e+09
4.9777017 5.1986041 -0.62539965 25 5 1.681198e+09
6.4148312 4.6457033 -1.5299208 29 2 1.681198e+09
4.5342598 4.738162 -1.0343883 24 3 1.681198e+09
5.6299868 4.0730944 -1.8512906 1 0 1.681198e+09
4.4111319 4.620542 -1.4644632 28 1 1.681198e+09
7.7983465 5.6306295 2.2090485 66 14 1.681198e+09
7.7523737 8.1226311 2.9951584 60 15 1.681198e+09
7.8002543 5.6319914 1.5148505 71 12 1.681198e+09
7.7402487 8.0760555 2.1656437 59 13 1.681198e+09
7.7930322 5.624702 0.83778459 71 10 1.681198e+09
7.7459092 8.0566368 1.3660387 61 11 1.681198e+09
7.7910409 5.619123 0.16706316 74 8 1.681198e+09
7.7377882 8.0341587 0.58276081 57 9 1.681198e+09
7.7713156 5.60078 -0.5018667 14 6 1.681198e+09
4.7677436 4.9443765 -0.11928719 12 7 1.681198e+09
6.4100599 4.6150045 -0.96413738 30 4 1.681198e+09
4.9837241 5.1686392 -0.62387741 25 5 1.681198e+09
6.4150643 4.6118255 -1.5261115 29 2 1.681198e+09
4.5713167 4.7436557 -1.0390865 29 3 1.681198e+09
5.5990481 4.021029 -1.8364182 1 0 1.681198e+09
4.4069886 4.5840273 -1.4577248 28 1 1.681198e+09
7.7981505 5.5891852 2.203433 66 14 1.681198e+09
7.7539153 8.0676498 2.9848192 61 15 1.681198e+09
7.7937708 5.5860329 1.5097775 69 12 1.681198e+09
7.7428384 8.0224895 2.1584947 58 13 1.681198e+09
7.7964201 5.5858641 0.83604145 71 10 1.681198e+09
7.7463803 8.0010138 1.3611709 60 11 1.681198e+09
7.7943459 5.580255 0.1667141 73 8 1.681198e+09
7.7414622 7.9819999 0.5809291 60 9 1.681198e+09
7.7684808 5.5576439 -0.50042266 21 6 1.681198e+09
4.7710519 4.9133477 -0.11893815 12 7 1.681198e+09
6.420073 4.5882745 -0.96322471 35 4 1.681198e+09
4.9809303 5.1297569 -0.62126797 25 5 1.681198e+09
6.4271269 4.5865541 -1.5251591 29 2 1.681198e+09
4.6101856 4.750721 -1.0441762 27 3 1.681198e+09
5.5992818 3.9916503 -1.8318918 8 0 1.681198e+09
4.4060316 4.5511012 -1.4521096 28 1 1.681198e+09
7.7937903 5.5449877 2.1966949 66 14 1.681198e+09
7.7501321 8.0075502 2.9725413 56 15 1.681198e+09
7.8051734 5.5530686 1.5082166 69 12 1.681198e+09
7.7468586 7.9707646 2.1518226 60 13 1.681198e+09
7.8016624 5.5485144 0.83451623 71 10 1.681198e+09
7.743094 7.9419303 1.3556945 59 11 1.681198e+09
7.7954369 5.5399842 0.16632143 74 8 1.681198e+09
7.7413793 7.9263401 0.57883567 61 9 1.681198e+09
7.7634039 5.5131516 -0.49884737 17 6 1.681198e+09
4.7742033 4.8823571 -0.1185891 14 7 1.681198e+09
6.4279532 4.5600948 -0.9620077 35 4 1.681198e+09
4.9831462 5.0963025 -0.61931092 25 5 1.681198e+09
6.4430981 4.5640912 -1.5251591 10 2 1.681198e+09
4.6388125 4.7469697 -1.0469168 23 3 1.681198e+09
5.5974088 3.9609253 -1.8267188 12 0 1.681198e+09
4.4082961 4.5217285 -1.4476173 28 1 1.681198e+09
7.7962155 5.5078697 2.1922026 68 14 1.681198e+09
7.7547441 7.9593096 2.9641407 57 15 1.681198e+09
7.7973228 5.5086365 1.5031438 68 12 1.681198e+09
7.7457995 7.9169521 2.144197 58 13 1.681198e+09
7.7996736 5.5082488 0.83233738 71 10 1.681198e+09
7.7537518 7.9002647 1.3529564 61 11 1.681198e+09
7.7892547 5.4968133 0.16579786 72 8 1.681198e+09
7.7466264 7.8792534 0.57726556 60 9 1.681198e+09
7.7489948 5.4643626 -0.49674696 25 6 1.681198e+09
4.7719374 4.8460579 -0.11810915 14 7 1.681198e+09
6.4633293 4.55304 -0.9650501 36 4 1.681198e+09
4.9851885 5.0628948 -0.6173538 25 5 1.681198e+09
6.4782753 4.5568156 -1.5299208 1 2 1.681198e+09
4.677022 4.7544589 -1.0520065 27 3 1.681198e+09
5.6032944 3.9358125 -1.8241322 8 0 1.681198e+09
4.4001784 4.4819584 -1.439756 27 1 1.681198e+09
7.8034248 5.4722323 2.1888335 68 14 1.681198e+09
7.7554307 7.9045992 2.9538014 60 15 1.681198e+09
7.798306 5.4686294 1.4996318 71 12 1.681198e+09
7.745841 7.8618836 2.1365714 58 13 1.681198e+09
7.8055301 5.4696226 0.8308121 71 10 1.681198e+09
7.7464104 7.8378396 1.3468717 59 11 1.681198e+09
7.7868228 5.4524603 0.16531791 75 8 1.681198e+09
7.7438445 7.8188658 0.57491046 58 9 1.681198e+09
7.7444201 5.4187536 -0.49517164 6 6 1.681198e+09
4.7677178 4.8080573 -0.11758558 13 7 1.681198e+09
nan nan nan 0 4 1.681198e+09
4.981802 5.0242262 -0.61474437 25 5 1.681198e+09
7.5749078 5.2884073 -1.7856219 20 2 1.681198e+09
4.709219 4.7539024 -1.0555302 25 3 1.681198e+09
5.6189799 3.9176099 -1.8247789 9 0 1.681198e+09
4.3952589 4.4457669 -1.4330176 28 1 1.681198e+09
7.8054299 5.4310751 2.1837797 68 14 1.681198e+09
7.7605925 7.8520632 2.9447546 62 15 1.681198e+09
7.8020797 5.42873 1.4965099 72 12 1.681198e+09
7.7555952 7.8142719 2.1313291 60 13 1.681198e+09
7.7979932 5.4238615 0.82797956 71 10 1.681198e+09
7.7509756 7.7878771 1.3429165 60 11 1.681198e+09
7.7934918 5.4166889 0.16505612 76 8 1.681198e+09
7.7481809 7.7687974 0.57320952 61 9 1.681198e+09
7.7407303 5.3760266 -0.49372762 6 6 1.681198e+09
4.7791777 4.7860761 -0.11745469 15 7 1.681198e+09
7.5050964 5.2066255 -1.115649 28 4 1.681198e+09
4.9887571 4.9962254 -0.61343962 25 5 1.681198e+09
7.5933213 5.2619348 -1.7856219 9 2 1.681198e+09
4.7484379 4.7601762 -1.06062 19 3 1.681198e+09
5.6286488 3.8952246 -1.8234856 6 0 1.681198e+09
4.4004464 4.4200315 -1.4296485 28 1 1.681198e+09
7.8113699 5.3968554 2.1804104 69 14 1.681198e+09
7.7559409 7.7954545 2.9331229 59 15 1.681198e+09
7.7997203 5.3887949 1.4926077 69 12 1.681198e+09
7.750257 7.757247 2.1227503 59 13 1.681198e+09
7.8066301 5.3895354 0.82689017 73 10 1.681198e+09
7.7500196 7.7327194 1.3380487 57 11 1.681198e+09
7.7928934 5.3780398 0.16466343 72 8 1.681198e+09
7.7473783 7.7166224 0.57124692 62 9 1.681198e+09
7.7646813 5.3545785 -0.49412146 4 6 1.681198e+09
4.7834563 4.7570176 -0.11714926 13 7 1.681198e+09
7.5202775 5.1803017 -1.1153448 16 4 1.681198e+09
4.985889 4.9603195 -0.61104763 25 5 1.681198e+09
3.8035462 2.6171856 -0.88900161 2 2 1.681198e+09
4.7860093 4.7644906 -1.0653181 16 3 1.681198e+09
5.6442022 3.87692 -1.8241322 8 0 1.681198e+09
4.3978472 4.388195 -1.4240332 29 1 1.681198e+09
7.8000212 5.3488951 2.1719878 66 14 1.681198e+09
7.7591853 7.7444396 2.9240761 59 15 1.681198e+09
7.8021889 5.3503661 1.4894859 71 12 1.681198e+09
7.7529297 7.7059155 2.1160779 60 13 1.681198e+09
7.8018599 5.3481321 0.82449335 74 10 1.681198e+09
7.7575836 7.6863995 1.334702 60 11 1.681198e+09
7.793056 5.3380957 0.16427076 72 8 1.681198e+09
7.7494283 7.6649427 0.56941521 61 9 1.681198e+09
7.7606602 5.3119349 -0.49267742 7 6 1.681198e+09
4.8160286 4.7561097 -0.11754195 14 7 1.681198e+09
7.5526552 5.1638203 -1.1174744 6 4 1.681198e+09
4.9916401 4.9297538 -0.60952544 27 5 1.681198e+09
7.605545 5.1921945 -1.7799079 7 2 1.681198e+09
4.8289328 4.7738113 -1.0711908 10 3 1.681198e+09
5.6417356 3.8463161 -1.8189592 9 0 1.681198e+09
4.4242783 4.3823404 -1.4274024 30 1 1.681198e+09
7.8025312 5.3106723 2.1674953 66 14 1.681198e+09
7.7621679 7.6934962 2.9150293 60 15 1.681198e+09
7.808568 5.314765 1.4871446 72 12 1.681198e+09
7.7535925 7.6529355 2.1089292 59 13 1.681198e+09
7.8069921 5.3097 0.82296813 74 10 1.681198e+09
7.7543101 7.6296763 1.32953 60 11 1.681198e+09
7.8063664 5.3052826 0.16413987 71 8 1.681198e+09
7.7525396 7.6119895 0.56758338 58 9 1.681198e+09
7.7800775 5.2834549 -0.49267742 9 6 1.681198e+09
4.8540025 4.7602863 -0.11806552 12 7 1.681198e+09
3.7309384 2.5319152 -0.54854518 7 4 1.681198e+09
4.992825 4.8965945 -0.60756832 25 5 1.681198e+09
3.7627959 2.5506556 -0.87519276 1 2 1.681198e+09
4.9212823 4.8313575 -1.088026 7 3 1.681198e+09
5.6951351 3.8536561 -1.8318918 2 0 1.681198e+09
4.4447546 4.3719988 -1.4290869 31 1 1.681198e+09
7.7997317 5.267046 2.1613185 69 14 1.681198e+09
7.7662225 7.6412706 2.9059823 60 15 1.681198e+09
7.8034339 5.2695303 1.4824618 72 12 1.681198e+09
7.7623158 7.6055646 2.1036866 60 13 1.681198e+09
7.8007054 5.2656994 0.82035339 72 10 1.681198e+09
7.7596054 7.5817423 1.325879 61 11 1.681198e+09
7.8020406 5.2626295 0.16365993 69 8 1.681198e+09
7.755836 7.5622149 0.5658825 62 9 1.681198e+09
7.7694869 5.2367358 -0.49083957 9 6 1.681198e+09
4.8938537 4.7660007 -0.11863272 12 7 1.681198e+09
3.733578 2.5147202 -0.54763246 25 4 1.681198e+09
5.0027547 4.8721814 -0.60669851 25 5 1.681198e+09
3.7329776 2.5114908 -0.86614567 28 2 1.681198e+09
4.9010134 4.7779293 -1.0798043 7 3 1.681198e+09
3.5851259 2.408483 -1.1471148 15 0 1.681198e+09
4.4843693 4.3803072 -1.4369484 32 1 1.681198e+09
7.8090606 5.2357273 2.1590726 75 14 1.681198e+09
7.7690768 7.5935206 2.8975816 61 15 1.681198e+09
7.8044553 5.2326264 1.4793401 73 12 1.681198e+09
7.7523346 7.5455313 2.0941546 59 13 1.681198e+09
7.8107619 5.2328949 0.81948191 73 10 1.681198e+09
7.7539802 7.5234933 1.3204027 60 11 1.681198e+09
7.8007545 5.2242136 0.16326725 71 8 1.681198e+09
7.7503963 7.5069127 0.56365824 61 9 1.681198e+09
7.772284 5.2012262 -0.48992065 8 6 1.681198e+09
4.9230304 4.7610612 -0.11893815 12 7 1.681198e+09
3.7480862 2.5064609 -0.54854518 31 4 1.681198e+09
4.9884744 4.8261056 -0.60300183 22 5 1.681198e+09
3.7376382 2.4957211 -0.86519331 10 2 1.681198e+09
4.9176617 4.7607923 -1.0798043 6 3 1.681198e+09
3.5834625 2.3892596 -1.1438817 19 0 1.681198e+09
4.5093527 4.3755989 -1.4403175 38 1 1.681198e+09
7.8090339 5.1962943 2.1540189 72 14 1.681198e+09
7.7626228 7.5343823 2.8853035 58 15 1.681198e+09
7.8041687 5.1930437 1.4758281 71 12 1.681198e+09
7.753932 7.4945364 2.0874825 60 13 1.681198e+09
7.8094068 5.1945543 0.81752092 72 10 1.681198e+09
7.7605476 7.4774337 1.3170562 62 11 1.681198e+09
7.7918773 5.1789703 0.16270006 68 8 1.681198e+09
7.7567682 7.4607668 0.56221896 60 9 1.681198e+09
7.7716732 5.1616364 -0.48873916 6 6 1.681198e+09
4.9630418 4.7663717 -0.11950535 12 7 1.681198e+09
7.5992007 5.0414085 -1.1138237 13 4 1.681198e+09
4.9881778 4.7905269 -0.60082728 25 5 1.681198e+09
3.7422345 2.479949 -0.86424094 9 2 1.681198e+09
4.9467015 4.7555842 -1.0825448 6 3 1.681198e+09
3.589766 2.3754044 -1.143235 12 0 1.681198e+09
4.5358791 4.3691902 -1.4436867 36 1 1.681198e+09
7.8189921 5.1636357 2.1517727 69 14 1.681198e+09
7.7645416 7.4837661 2.8762567 61 15 1.681198e+09
7.811944 5.1589684 1.473877 75 12 1.681198e+09
7.7552681 7.4436221 2.0808101 58 13 1.681198e+09
7.8076034 5.1521831 0.81534195 73 10 1.681198e+09
7.7579255 7.4228387 1.3121881 60 11 1.681198e+09
7.7941108 5.1393719 0.162351 72 8 1.681198e+09
7.7533774 7.4029646 0.5599947 61 9 1.681198e+09
3.8791547 2.5569713 -0.24246608 8 6 1.681198e+09
5.0031495 4.7714601 -0.12007254 12 7 1.681198e+09
7.5699487 4.9821553 -1.1068261 31 4 1.681198e+09
4.9850564 4.7541656 -0.59843522 29 5 1.681198e+09
3.7918892 2.4938269 -0.87376428 4 2 1.681198e+09
4.9704113 4.7451129 -1.0841109 6 3 1.681198e+09
nan nan nan 0 0 1.681198e+09
4.5669355 4.3684974 -1.4487404 40 1 1.681198e+09
7.8174849 5.1215959 2.1461573 71 14 1.681198e+09
7.7640109 7.4285316 2.8659174 60 15 1.681198e+09
7.8080769 5.1154199 1.4695845 72 12 1.681198e+09
7.7611856 7.3948236 2.0750911 58 13 1.681198e+09
7.8088708 5.1139855 0.81359887 74 10 1.681198e+09
7.7622113 7.3751936 1.3085374 62 11 1.681198e+09
7.7931762 5.0998182 0.16195832 69 8 1.681198e+09
7.753819 7.3517962 0.55816299 59 9 1.681198e+09
3.883877 2.5406835 -0.24220352 72 6 1.681198e+09
5.0415397 4.7746067 -0.12059612 12 7 1.681198e+09
7.5789814 4.9502745 -1.1056092 28 4 1.681198e+09
5.012464 4.7470183 -0.59973997 19 5 1.681198e+09
7.6365523 4.9821739 -1.7622896 4 2 1.681198e+09
5.0030613 4.7430339 -1.0876346 4 3 1.681198e+09
3.8147049 2.4860122 -1.2098374 7 0 1.681198e+09
4.5962768 4.3659616 -1.4532326 42 1 1.681198e+09
7.8180871 5.085022 2.1416652 73 14 1.681198e+09
7.7728543 7.3877635 2.8601017 59 15 1.681198e+09
7.8146453 5.0827694 1.4676334 73 12 1.681198e+09
7.7589412 7.3437295 2.0679419 62 13 1.681198e+09
7.8078785 5.0744853 0.81163788 74 10 1.681198e+09
7.7590423 7.3207946 1.3036695 60 11 1.681198e+09
7.7974658 5.0657787 0.16169652 69 8 1.681198e+09
7.750905 7.3003559 0.55620033 61 9 1.681198e+09
3.8964696 2.5305078 -0.24246608 96 6 1.681198e+09
5.0800128 4.7775435 -0.1211197 10 7 1.681198e+09
7.595356 4.9251142 -1.1056092 19 4 1.681198e+09
7.2053924 6.7813544 -0.86090308 1 5 1.681198e+09
7.577662 4.9061499 -1.7446716 34 2 1.681198e+09
5.042944 4.7475591 -1.0927243 7 3 1.681198e+09
3.859869 2.4962735 -1.2214767 12 0 1.681198e+09
4.6213536 4.3607354 -1.4566017 30 1 1.681198e+09
7.8214607 5.0484552 2.1377344 72 14 1.681198e+09
7.766995 7.3307343 2.84847 58 15 1.681198e+09
7.8095155 5.0407338 1.4633409 74 12 1.681198e+09
7.7541394 7.2880149 2.0598397 60 13 1.681198e+09
7.8100123 5.0391169 0.81011266 73 10 1.681198e+09
7.7573986 7.2682052 1.299106 58 11 1.681198e+09
7.7982931 5.0276976 0.16134749 72 8 1.681198e+09
7.7526469 7.2510748 0.55449939 59 9 1.681198e+09
3.898982 2.5128362 -0.24207225 8 6 1.681198e+09
5.1094389 4.7717328 -0.12142511 10 7 1.681198e+09
7.6145873 4.8999138 -1.1059133 19 4 1.681198e+09
nan nan nan 0 5 1.681198e+09
7.596806 4.8809958 -1.7451476 14 2 1.681198e+09
5.072103 4.7417393 -1.0954649 9 3 1.681198e+09
3.8563621 2.4749632 -1.217597 10 0 1.681198e+09
4.6479659 4.3537679 -1.459971 30 1 1.681198e+09
7.8164668 5.0066729 2.1315577 72 14 1.681198e+09
7.7678776 7.2804456 2.8394232 60 15 1.681198e+09
7.8187447 5.0081167 1.46178 72 12 1.681198e+09
7.7598052 7.2424755 2.0545974 59 13 1.681198e+09
7.8095484 4.9983783 0.80815166 71 10 1.681198e+09
7.7536669 7.214026 1.2942381 61 11 1.681198e+09
7.795608 4.9856181 0.16091119 72 8 1.681198e+09
7.757225 7.2022176 0.55292934 59 9 1.681198e+09
7.7183814 4.9324532 -0.47981241 7 6 1.681198e+09
5.1572022 4.7827835 -0.12216684 10 7 1.681198e+09
7.7057118 4.9186873 -1.1165618 4 4 1.681198e+09
7.2464333 6.7228417 -0.86003321 1 5 1.681198e+09
7.622077 4.859724 -1.7470523 2 2 1.681198e+09
5.1175599 4.7509027 -1.1017292 12 3 1.681198e+09
3.8405287 2.4459293 -1.2098374 9 0 1.681198e+09
4.6827426 4.3557825 -1.4661478 29 1 1.681198e+09
7.8203697 4.9688478 2.1276269 72 14 1.681198e+09
7.7697659 7.2288852 2.8303764 60 15 1.681198e+09
7.8224564 4.9701586 1.4590484 72 12 1.681198e+09
7.7647038 7.1939611 2.0488782 60 13 1.681198e+09
7.8122301 4.9617434 0.80662644 73 10 1.681198e+09
7.7563667 7.1636615 1.290283 61 11 1.681198e+09
7.8002992 4.9503412 0.16064939 71 8 1.681198e+09
7.7566323 7.1513934 0.55109757 62 9 1.681198e+09
7.8051367 4.9495902 -0.48414451 6 6 1.681198e+09
5.1812162 4.7715306 -0.12234136 10 7 1.681198e+09
4.0036035 2.5369239 -0.57683951 37 4 1.681198e+09
7.2185912 6.6502328 -0.85394454 2 5 1.681198e+09
3.9929178 2.5262685 -0.90995282 15 2 1.681198e+09
5.1494555 4.7455101 -1.1048614 10 3 1.681198e+09
3.8490431 2.4325085 -1.2098374 9 0 1.681198e+09
4.7104368 4.3509898 -1.4700785 29 1 1.681198e+09
7.8149958 4.9272318 2.1214502 71 14 1.681198e+09
7.7772217 7.1853237 2.8239143 60 15 1.681198e+09
7.8167782 4.9283404 1.4547559 76 12 1.681198e+09
7.7662992 7.1452022 2.0426826 61 13 1.681198e+09
7.8126445 4.9238234 0.80488324 72 10 1.681198e+09
7.755733 7.1130509 1.2860236 60 11 1.681198e+09
7.7984939 4.911099 0.16025671 69 8 1.681198e+09
7.7539377 7.0989738 0.54913497 61 9 1.681198e+09
7.7885537 4.9010468 -0.48204407 1 6 1.681198e+09
5.221806 4.7753606 -0.12290857 9 7 1.681198e+09
4.012435 2.5229332 -0.57683951 22 4 1.681198e+09
7.2160454 6.6014476 -0.85090011 2 5 1.681198e+09
3.9975541 2.509707 -0.90900058 10 2 1.681198e+09
5.1860137 4.7458558 -1.1091681 16 3 1.681198e+09
3.8411396 2.4088001 -1.2046645 9 0 1.681198e+09
4.7381544 4.3460574 -1.4740092 28 1 1.681198e+09
7.8197546 4.8921723 2.1180809 71 14 1.681198e+09
7.7773504 7.1352634 2.8148673 58 15 1.681198e+09
7.8213706 4.8931689 1.4524145 76 12 1.681198e+09
7.7676487 7.0965199 2.0364869 64 13 1.681198e+09
7.8128901 4.8859615 0.80314022 74 10 1.681198e+09
7.7658439 7.0725617 1.2835896 65 11 1.681198e+09
7.7986283 4.8732533 0.15990765 73 8 1.681198e+09
7.7546654 7.0500212 0.54743409 64 9 1.681198e+09
3.8832862 2.4257417 -0.23892163 10 6 1.681198e+09
5.262485 4.778965 -0.12347577 6 7 1.681198e+09
7.8241801 4.8797336 -1.1262975 42 4 1.681198e+09
7.2316737 6.5695171 -0.8500303 3 5 1.681198e+09
4.0125403 2.4996281 -0.910429 10 2 1.681198e+09
5.2171583 4.7410183 -1.1123002 23 3 1.681198e+09
nan nan nan 0 0 1.681198e+09
4.7766938 4.3508334 -1.4813091 29 1 1.681198e+09
7.8222938 4.8558559 2.1141503 71 14 1.681198e+09
7.7772264 7.0852904 2.8058205 60 15 1.681198e+09
7.8237157 4.8567238 1.449683 75 12 1.681198e+09
7.7614851 7.0413151 2.0283847 59 13 1.681198e+09
7.8066173 4.8442197 0.8007434 76 10 1.681198e+09
7.7592106 7.0171022 1.2784176 64 11 1.681198e+09
7.8007188 4.8367834 0.15960224 75 8 1.681198e+09
7.7625561 7.0078464 0.54625654 61 9 1.681198e+09
3.887485 2.409543 -0.2386591 44 6 1.681198e+09
7.4553332 6.7255335 -0.17465495 1 7 1.681198e+09
7.7841878 4.8171468 -1.118083 46 4 1.681198e+09
7.2342286 6.5258741 -0.84763831 3 5 1.681198e+09
7.606493 4.6999025 -1.7280058 1 2 1.681198e+09
5.2611566 4.7476087 -1.1181729 25 3 1.681198e+09
3.6009483 2.223438 -1.1238362 14 0 1.681198e+09
4.8062968 4.3472176 -1.4858012 24 1 1.681198e+09
7.8308988 4.8234124 2.1119041 73 14 1.681198e+09
7.7822189 7.0402689 2.7987123 60 15 1.681198e+09
7.8195944 4.8164382 1.4457808 72 12 1.681198e+09
7.7641449 6.9944592 2.0226655 60 13 1.681198e+09
7.8149948 4.8117185 0.7998718 77 10 1.681198e+09
7.7633562 6.9717278 1.2750709 62 11 1.681198e+09
7.80478 4.8016686 0.15934047 74 8 1.681198e+09
7.7609558 6.9573646 0.54442477 61 9 1.681198e+09
3.8979998 2.3972657 -0.23879036 86 6 1.681198e+09
7.4620152 6.6844506 -0.17426227 4 7 1.681198e+09
7.6634903 4.7055745 -1.0983074 1 4 1.681198e+09
7.238421 6.4839554 -0.84546369 4 5 1.681198e+09
7.6228518 4.6733222 -1.7280058 6 2 1.681198e+09
5.3015885 4.7506518 -1.1232626 25 3 1.681198e+09
3.5983889 2.2045512 -1.1206031 13 0 1.681198e+09
4.8486109 4.3548508 -1.4942241 28 1 1.681198e+09
7.822741 4.7808084 2.1051657 72 14 1.681198e+09
7.7816057 6.9904556 2.7896655 60 15 1.681198e+09
7.8216085 4.7801018 1.4430492 73 12 1.681198e+09
7.7665725 6.9476705 2.0169466 60 13 1.681198e+09
7.8189893 4.7766209 0.79856443 75 10 1.681198e+09
7.7635784 6.9231062 1.2711158 62 11 1.681198e+09
7.8065567 4.7652822 0.15903506 74 8 1.681198e+09
7.7609615 6.9086413 0.54272383 64 9 1.681198e+09
3.91487 2.3888428 -0.23931547 6 6 1.681198e+09
7.4890366 6.6616869 -0.17434953 3 7 1.681198e+09
7.8027921 4.7536511 -1.1159533 23 4 1.681198e+09
7.2331085 6.4338078 -0.84220195 2 5 1.681198e+09
6.9449964 4.2246523 -1.5703949 14 2 1.681198e+09
5.3365746 4.7485423 -1.1271778 25 3 1.681198e+09
3.6411524 2.2132869 -1.1315957 10 0 1.681198e+09
4.8819518 4.3541274 -1.4998394 29 1 1.681198e+09
7.8247976 4.7446337 2.1012352 79 14 1.681198e+09
7.7807388 6.9407315 2.7806184 60 15 1.681198e+09
7.8192406 4.7412515 1.4395372 73 12 1.681198e+09
7.7687688 6.9009504 2.0112274 62 13 1.681198e+09
7.8207049 4.7402654 0.79703921 75 10 1.681198e+09
7.7654128 6.8762136 1.267465 62 11 1.681198e+09
7.8060365 4.7276459 0.158686 69 8 1.681198e+09
7.7588525 6.8583488 0.54089212 62 9 1.681198e+09
7.7511425 4.6907177 -0.47456136 4 6 1.681198e+09
7.4897728 6.6156373 -0.17382596 3 7 1.681198e+09
3.7436476 2.2638893 -0.53211623 10 4 1.681198e+09
7.2349982 6.3903742 -0.83980995 2 5 1.681198e+09
6.909266 4.1699595 -1.5589668 37 2 1.681198e+09
5.3753095 4.7495193 -1.131876 22 3 1.681198e+09
3.8784566 2.3389034 -1.2033712 9 0 1.681198e+09
4.9372172 4.372622 -1.5121931 22 1 1.681198e+09
7.8329616 4.7122693 2.0989892 76 14 1.681198e+09
7.7850409 6.895906 2.7735102 62 15 1.681198e+09
7.8209295 4.70502 1.4368056 74 12 1.681198e+09
7.7725725 6.8559222 2.0059848 66 13 1.681198e+09
7.8179936 4.7013898 0.79507822 79 10 1.681198e+09
7.767015 6.8293929 1.2638141 64 11 1.681198e+09
7.8032064 4.6887865 0.15829332 72 8 1.681198e+09
7.7621136 6.8130975 0.53945285 62 9 1.681198e+09
7.7589073 4.6584945 -0.47403631 4 6 1.681198e+09
7.5015488 6.5795579 -0.17356417 3 7 1.681198e+09
3.745142 2.2469804 -0.53120351 29 4 1.681198e+09
7.2404165 6.3502927 -0.83785284 2 5 1.681198e+09
6.9216738 4.1445565 -1.5584908 37 2 1.681198e+09
5.4141145 4.7502823 -1.1365741 16 3 1.681198e+09
3.9052527 2.3365028 -1.2091908 9 0 1.681198e+09
nan nan nan 0 1 1.681198e+09
7.8326254 4.6749144 2.0944967 79 14 1.681198e+09
7.7782493 6.8415599 2.7625248 60 15 1.681198e+09
7.8160982 4.6650395 1.4329033 74 12 1.681198e+09
7.7706203 6.8061004 1.9993125 60 13 1.681198e+09
7.8258009 4.6689692 0.79420674 80 10 1.681198e+09
7.764647 6.7793794 1.2595546 62 11 1.681198e+09
7.8023477 4.6512833 0.15794428 73 8 1.681198e+09
7.7689166 6.7711906 0.5382753 62 9 1.681198e+09
7.7751217 4.6313825 -0.47403631 10 6 1.681198e+09
7.4943228 6.5270524 -0.17286608 4 7 1.681198e+09
3.759361 2.2376988 -0.53211623 36 4 1.681198e+09
7.217483 6.2857032 -0.83263397 4 5 1.681198e+09
6.9171062 4.1090932 -1.5542052 37 2 1.681198e+09
5.4436884 4.7427163 -1.1393148 10 3 1.681198e+09
3.9133849 2.3228562 -1.2091908 8 0 1.681198e+09
5.4535837 4.7630243 -1.6609977 9 1 1.681198e+09
7.8363175 4.640099 2.0911276 77 14 1.681198e+09
7.782083 6.7968826 2.7554166 60 15 1.681198e+09
7.8259597 4.6339545 1.4317327 79 12 1.681198e+09
7.7702675 6.7579865 1.9931167 57 13 1.681198e+09
7.8249035 4.6314778 0.7924636 79 10 1.681198e+09
7.7676487 6.734345 1.2562081 62 11 1.681198e+09
7.8013215 4.613843 0.15759522 74 8 1.681198e+09
7.7679734 6.7227812 0.53657436 62 9 1.681198e+09
7.7869411 4.6016741 -0.47377375 10 6 1.681198e+09
7.4717031 6.4615893 -0.17181893 4 7 1.681198e+09
7.7936006 4.600112 -1.1053048 34 4 1.681198e+09
7.2261987 6.2490611 -0.83111173 4 5 1.681198e+09
6.9250641 4.0811863 -1.5527768 36 2 1.681198e+09
5.5031357 4.7608695 -1.1483197 29 3 1.681198e+09
3.9131439 2.3042841 -1.2066044 8 0 1.681198e+09
5.4775338 4.7503476 -1.6632439 19 1 1.681198e+09
7.8377619 4.6040826 2.0871968 74 14 1.681198e+09
7.7838764 6.7506795 2.7476623 61 15 1.681198e+09
7.8271823 4.597856 1.4290011 76 12 1.681198e+09
7.7715302 6.7115631 1.9873977 53 13 1.681198e+09
7.8259883 4.5953112 0.79093838 74 10 1.681198e+09
7.7692637 6.6907287 1.2528614 60 11 1.681198e+09
7.8109112 4.5827899 0.15746433 71 8 1.681198e+09
7.7705731 6.6777167 0.53513509 66 9 1.681198e+09
7.7921867 4.5681539 -0.47311738 13 6 1.681198e+09
7.4885259 6.4305811 -0.17168804 4 7 1.681198e+09
3.7491922 2.1963577 -0.52846533 7 4 1.681198e+09
7.2120819 6.1929536 -0.82698011 6 5 1.681198e+09
6.9300842 4.0532446 -1.5508721 37 2 1.681198e+09
5.5263796 4.7490358 -1.1498858 32 3 1.681198e+09
3.9211636 2.2906106 -1.2066044 8 0 1.681198e+09
5.5069981 4.7423348 -1.6671745 29 1 1.681198e+09
7.8403578 4.5707078 2.083828 76 14 1.681198e+09
7.7751269 6.6980195 2.7366767 58 15 1.681198e+09
7.8231845 4.5606861 1.4254891 76 12 1.681198e+09
7.7658143 6.6617746 1.9802487 49 13 1.681198e+09
7.8226104 4.5566874 0.78897738 76 10 1.681198e+09
7.7661781 6.6409783 1.248602 60 11 1.681198e+09
7.8131032 4.5493188 0.15720254 71 8 1.681198e+09
7.7660999 6.6292076 0.53330338 64 9 1.681198e+09
7.7727623 4.5222077 -0.47101697 9 6 1.681198e+09
7.4805059 6.378438 -0.17098995 6 7 1.681198e+09
3.7564549 2.1839128 -0.52846533 42 4 1.681198e+09
7.2590961 6.1916432 -0.83002448 4 5 1.681198e+09
6.9314518 4.0216417 -1.548015 36 2 1.681198e+09
nan nan nan 0 3 1.681198e+09
3.9333153 2.2793291 -1.2078977 7 0 1.681198e+09
5.550447 4.7478175 -1.6755975 28 1 1.681198e+09
7.8372831 4.5323391 2.0787742 76 14 1.681198e+09
7.7819495 6.656702 2.7308607 64 15 1.681198e+09
7.8027129 4.5123415 1.4188553 76 12 1.681198e+09
7.7554054 6.6059666 1.97167 45 13 1.681198e+09
7.8225832 4.5219994 0.78745216 77 10 1.681198e+09
7.7704034 6.5977588 1.2455596 65 11 1.681198e+09
7.8159466 4.5145192 0.15694074 71 8 1.681198e+09
7.7644439 6.5810623 0.53160244 64 9 1.681198e+09
7.7755251 4.4875627 -0.4702293 8 6 1.681198e+09
7.4855628 6.3377433 -0.17059726 6 7 1.681198e+09
3.7490051 2.1621153 -0.52633566 40 4 1.681198e+09
7.2779403 6.1617756 -0.82958955 4 5 1.681198e+09
6.9731035 4.0133319 -1.5542052 4 2 1.681198e+09
5.9830437 5.0697427 -1.2379771 35 3 1.681198e+09
3.9307766 2.2595718 -1.2046645 7 0 1.681198e+09
