# .PCD v0.7 - Point Cloud Data file format
VERSION 0.7
FIELDS x y z intensity ring timestamp
SIZE 4 4 4 4 2 8
TYPE F F F F U F
COUNT 1 1 1 1 1 1
WIDTH 963
HEIGHT 1
VIEWPOINT 0 0 0 1 0 0 0
POINTS 963
DATA ascii
-26.622244 -26.905394 1.9818318 1 9 1.681198e+09
-4.1064787 -2.8753445 -0.26176357 27 6 1.681198e+09
-2.8435485 -2.8649888 -0.069853254 22 7 1.681198e+09
nan nan nan 0 4 1.681198e+09
-2.8345647 -2.8568976 -0.34836239 36 5 1.681198e+09
-3.422914 -2.3908596 -0.80329168 4 2 1.681198e+09
-2.8025608 -2.8265004 -0.62564439 30 3 1.681198e+09
-2.2190173 -1.5484085 -0.71516848 28 0 1.681198e+09
-2.5088122 -2.5356834 -0.81421459 10 1 1.681198e+09
-39.56757 -27.533033 11.103079 7 14 1.681198e+09
-26.610456 -26.949707 10.124734 30 15 1.681198e+09
-38.673946 -26.91124 7.4400148 10 12 1.681198e+09
-26.491772 -26.7174 7.2999926 17 13 1.681198e+09
-40.007122 -27.828487 4.2606082 10 10 1.681198e+09
nan nan nan 0 11 1.681198e+09
-4.0014672 -2.7831805 0.084469639 10 8 1.681198e+09
-26.81819 -26.914885 1.9894205 2 9 1.681198e+09
-4.1677542 -2.8965952 -0.26504546 25 6 1.681198e+09
-2.8724453 -2.8750162 -0.07033319 22 7 1.681198e+09
-4.0564933 -2.816184 -0.60117877 22 4 1.681198e+09
-2.8832023 -2.8857901 -0.35314637 28 5 1.681198e+09
-3.4393089 -2.3844869 -0.8051964 3 2 1.681198e+09
-2.8054397 -2.8097031 -0.62407827 31 3 1.681198e+09
-2.2261257 -1.5424154 -0.71581513 56 0 1.681198e+09
-2.5176477 -2.5269103 -0.81421459 9 1 1.681198e+09
-39.90398 -27.560873 11.170463 10 14 1.681198e+09
-27.531837 -27.689053 10.438789 22 15 1.681198e+09
-38.962715 -26.910795 7.4774766 10 12 1.681198e+09
-26.654224 -26.694237 7.319056 17 13 1.681198e+09
-40.542614 -27.991459 4.3072367 27 10 1.681198e+09
-27.889645 -27.844246 4.8276844 14 11 1.681198e+09
-4.0235033 -2.7777123 0.08473143 7 8 1.681198e+09
-32.716698 -32.607624 2.4189677 17 9 1.681198e+09
-4.1716738 -2.877779 -0.26465166 14 6 1.681198e+09
-2.8824632 -2.8649719 -0.07033319 14 7 1.681198e+09
nan nan nan 0 4 1.681198e+09
-2.976187 -2.9583192 -0.36336675 29 5 1.681198e+09
-3.4294102 -2.3599529 -0.80091089 2 2 1.681198e+09
-2.8012407 -2.7859476 -0.62094617 31 3 1.681198e+09
-2.2394588 -1.540104 -0.71840161 45 0 1.681198e+09
-2.5230069 -2.5146627 -0.81309152 9 1 1.681198e+09
-40.319431 -27.640417 11.259745 14 14 1.681198e+09
-27.69154 -27.655933 10.4627 17 15 1.681198e+09
-39.262127 -26.915636 7.5168891 22 12 1.681198e+09
-26.8325 -26.685848 7.3424096 17 13 1.681198e+09
-40.652401 -27.858213 4.3085442 39 10 1.681198e+09
-27.99548 -27.755457 4.8292055 14 11 1.681198e+09
-4.0579243 -2.780597 0.085254997 6 8 1.681198e+09
-27.161568 -26.881565 2.0009344 3 9 1.681198e+09
-4.0992761 -2.8068094 -0.25940064 34 6 1.681198e+09
-2.946265 -2.9071159 -0.071642123 35 7 1.681198e+09
-2.8837261 -1.9729186 -0.42411092 9 4 1.681198e+09
-2.9994056 -2.9596493 -0.36488891 20 5 1.681198e+09
nan nan nan 0 2 1.681198e+09
-2.8091936 -2.7744153 -0.62055463 15 3 1.681198e+09
-2.2630498 -1.5441242 -0.72422123 22 0 1.681198e+09
-2.5287476 -2.5019674 -0.81196851 8 1 1.681198e+09
-40.443867 -27.51869 11.267607 14 14 1.681198e+09
-27.895924 -27.666252 10.50341 20 15 1.681198e+09
-39.545715 -26.907604 7.5531802 14 12 1.681198e+09
-27.030241 -26.695503 7.3710055 27 13 1.681198e+09
-40.741875 -27.700628 4.3072367 47 10 1.681198e+09
-28.106339 -27.671495 4.8316398 7 11 1.681198e+09
-4.0887651 -2.7797518 0.08569131 31 8 1.681198e+09
-27.368538 -26.888575 2.0089157 7 9 1.681198e+09
-4.196291 -2.8506579 -0.26491421 28 6 1.681198e+09
-2.8975403 -2.8390181 -0.070202306 38 7 1.681198e+09
-2.8642383 -1.944232 -0.42015579 15 4 1.681198e+09
-2.986618 -2.9264765 -0.36206204 15 5 1.681198e+09
-2.7102129 -1.8377353 -0.62853891 37 2 1.681198e+09
-2.7255375 -2.6728516 -0.59980422 1 3 1.681198e+09
-2.2724266 -1.5389209 -0.72551447 45 0 1.681198e+09
-2.5357301 -2.4914157 -0.81140697 7 1 1.681198e+09
-40.60907 -27.413891 11.285576 7 14 1.681198e+09
-28.093502 -27.658718 10.539598 17 15 1.681198e+09
-39.856922 -26.906166 7.5937634 14 12 1.681198e+09
-27.220772 -26.687323 7.396265 27 13 1.681198e+09
-40.679359 -27.450983 4.2904592 38 10 1.681198e+09
-28.483072 -27.847338 4.8797097 10 11 1.681198e+09
-4.1170959 -2.7780392 0.086083986 10 8 1.681198e+09
-28.59326 -27.896605 2.0917373 68 9 1.681198e+09
-4.2766123 -2.8834221 -0.26937759 25 6 1.681198e+09
-2.9110117 -2.832377 -0.07028956 31 7 1.681198e+09
-2.8607142 -1.9272951 -0.41863459 27 4 1.681198e+09
-2.9468892 -2.8673468 -0.35597327 12 5 1.681198e+09
-2.7166111 -1.8282635 -0.62853891 37 2 1.681198e+09
-2.7613537 -2.6891935 -0.60567695 1 3 1.681198e+09
-2.2978361 -1.544438 -0.73198074 30 0 1.681198e+09
-2.5339625 -2.4723277 -0.80803776 6 1 1.681198e+09
nan nan nan 0 14 1.681198e+09
-28.323175 -27.70051 10.591294 14 15 1.681198e+09
-40.138748 -26.903074 7.6304445 14 12 1.681198e+09
-27.419867 -26.704792 7.4262896 20 13 1.681198e+09
nan nan nan 0 10 1.681198e+09
-28.654869 -27.820349 4.8924875 14 11 1.681198e+09
-4.1532884 -2.7824478 0.086651191 8 8 1.681198e+09
-28.777029 -27.890257 2.0984099 57 9 1.681198e+09
-4.2591739 -2.8511791 -0.26767099 16 6 1.681198e+09
-2.9639769 -2.8639321 -0.071336709 32 7 1.681198e+09
-2.8547103 -1.9095263 -0.41680917 30 4 1.681198e+09
-2.993947 -2.8939493 -0.36053985 10 5 1.681198e+09
-2.7127688 -1.8119595 -0.62615806 39 2 1.681198e+09
-2.742358 -2.6520402 -0.59941268 7 3 1.681198e+09
-2.3132622 -1.5431019 -0.73521388 39 0 1.681198e+09
-2.5438943 -2.4656088 -0.80859929 7 1 1.681198e+09
-39.812984 -26.483833 11.013797 7 14 1.681198e+09
-28.534023 -27.712536 10.633944 22 15 1.681198e+09
-40.454468 -26.910503 7.6725888 10 12 1.681198e+09
-27.613461 -26.706181 7.4534559 20 13 1.681198e+09
-41.956139 -27.898773 4.4050694 32 10 1.681198e+09
-28.876839 -27.840727 4.9137845 10 11 1.681198e+09
-4.1817136 -2.7803826 0.087043867 6 8 1.681198e+09
-28.971336 -27.883135 2.1054754 69 9 1.681198e+09
-4.2337418 -2.81282 -0.2654393 32 6 1.681198e+09
-3.0063863 -2.8847549 -0.07212206 34 7 1.681198e+09
-2.8613584 -1.8995497 -0.41680917 24 4 1.681198e+09
-3.0170996 -2.8950408 -0.36206204 8 5 1.681198e+09
-2.7211235 -1.8038342 -0.62663424 40 2 1.681198e+09
-2.7676086 -2.6578634 -0.60293639 7 3 1.681198e+09
-2.3266923 -1.5403448 -0.73780042 37 0 1.681198e+09
-2.5476544 -2.4511945 -0.80691475 6 1 1.681198e+09
-40.47242 -26.719143 11.170463 10 14 1.681198e+09
-28.760944 -27.738522 10.682409 24 15 1.681198e+09
-40.704777 -26.872517 7.7022457 10 12 1.681198e+09
-27.818012 -26.716736 7.4834809 14 13 1.681198e+09
-42.226505 -27.855886 4.422718 29 10 1.681198e+09
-29.077793 -27.839304 4.9314303 10 11 1.681198e+09
-4.2169209 -2.7815452 0.087567441 36 8 1.681198e+09
-29.181633 -27.880251 2.1133258 44 9 1.681198e+09
-4.3857999 -2.890662 -0.27436605 25 6 1.681198e+09
-3.0308995 -2.8880537 -0.072471112 34 7 1.681198e+09
-2.8620825 -1.8849584 -0.41589645 21 4 1.681198e+09
-2.991163 -2.8500907 -0.35771292 8 5 1.681198e+09
-2.7274034 -1.7943246 -0.62663424 44 2 1.681198e+09
-2.7768693 -2.6481864 -0.60293639 6 3 1.681198e+09
-2.3461888 -1.5414876 -0.7423268 56 0 1.681198e+09
-2.5614724 -2.4473422 -0.80859929 4 1 1.681198e+09
-40.533398 -26.546602 11.160356 10 14 1.681198e+09
-28.958351 -27.724789 10.717951 1 15 1.681198e+09
-41.088081 -26.90984 7.7560968 1 12 1.681198e+09
-28.018757 -26.712833 7.5111237 20 13 1.681198e+09
-40.093914 -26.248775 4.1895766 2 10 1.681198e+09
-29.283943 -27.831699 4.9490762 10 11 1.681198e+09
-4.253798 -2.7845962 0.088134646 9 8 1.681198e+09
-29.367516 -27.862427 2.1197369 32 9 1.681198e+09
-4.4439273 -2.9067514 -0.27738538 17 6 1.681198e+09
-2.975667 -2.8155372 -0.070900396 38 7 1.681198e+09
-2.8728004 -1.8776693 -0.41650492 21 4 1.681198e+09
-2.9215789 -2.7642283 -0.34814495 6 5 1.681198e+09
-2.7360177 -1.7856565 -0.62711042 44 2 1.681198e+09
nan nan nan 0 3 1.681198e+09
-2.3515553 -1.5332884 -0.7423268 49 0 1.681198e+09
-2.5558796 -2.4249535 -0.80410707 6 1 1.681198e+09
-40.591091 -26.382385 11.150809 10 14 1.681198e+09
-29.140705 -27.705082 10.749614 35 15 1.681198e+09
-41.426086 -26.925037 7.8021436 4 12 1.681198e+09
-28.224096 -26.721178 7.5411491 10 13 1.681198e+09
-42.92326 -27.887398 4.4752297 39 10 1.681198e+09
-29.481962 -27.824697 4.9661136 17 11 1.681198e+09
-4.2823615 -2.78198 0.088527322 8 8 1.681198e+09
-29.560888 -27.850491 2.1266716 37 9 1.681198e+09
-4.3325663 -2.8124213 -0.2697714 32 6 1.681198e+09
-3.0036747 -2.8222694 -0.071336709 31 7 1.681198e+09
-2.871007 -1.8622328 -0.41528794 22 4 1.681198e+09
-2.8840687 -2.7096205 -0.34249112 4 5 1.681198e+09
-2.736052 -1.7720957 -0.62568188 44 2 1.681198e+09
-2.6142528 -2.4572155 -0.56339312 2 3 1.681198e+09
-2.3609495 -1.527692 -0.74362004 44 0 1.681198e+09
-2.5802665 -2.4310732 -0.80916083 3 1 1.681198e+09
-40.648125 -26.218088 11.141263 10 14 1.681198e+09
-29.367172 -27.725899 10.797433 32 15 1.681198e+09
-41.739784 -26.922138 7.8435073 4 12 1.681198e+09
-28.426252 -26.725048 7.5702214 1 13 1.681198e+09
-43.183617 -27.842659 4.4922247 44 10 1.681198e+09
-29.662766 -27.809956 4.9810219 14 11 1.681198e+09
-4.3172622 -2.7832592 0.089050896 35 8 1.681198e+09
-29.760008 -27.842663 2.1339984 90 9 1.681198e+09
-4.5249901 -2.9148443 -0.28119239 23 6 1.681198e+09
-3.0463705 -2.8424981 -0.07212206 34 7 1.681198e+09
-2.8795772 -1.853542 -0.41559219 22 4 1.681198e+09
-2.8789566 -2.6859279 -0.34075147 4 5 1.681198e+09
-2.7439785 -1.7643392 -0.62615806 45 2 1.681198e+09
-2.635005 -2.4603448 -0.5661338 3 3 1.681198e+09
-2.7301519 -1.7527816 -0.85936612 34 0 1.681198e+09
-2.5905137 -2.4237182 -0.80972236 8 1 1.681198e+09
-40.697918 -26.059505 11.131156 1 14 1.681198e+09
-29.599861 -27.76054 10.84913 1 15 1.681198e+09
-20.475307 -13.111667 3.8366847 4 12 1.681198e+09
-28.620531 -26.729479 7.5983405 1 13 1.681198e+09
-43.498722 -27.831335 4.5148854 32 10 1.681198e+09
-23.939455 -22.286407 4.0059314 3 11 1.681198e+09
-4.3454204 -2.7810481 0.089443579 9 8 1.681198e+09
-29.815603 -27.709827 2.1313818 1 9 1.681198e+09
-4.4946604 -2.8742805 -0.27869815 16 6 1.681198e+09
-3.0709276 -2.8454542 -0.072471112 32 7 1.681198e+09
-2.8815246 -1.8413123 -0.41498372 10 4 1.681198e+09
-2.8787241 -2.667891 -0.33966419 4 5 1.681198e+09
-2.7480509 -1.7534311 -0.62568188 44 2 1.681198e+09
-2.6435773 -2.4511318 -0.5661338 3 3 1.681198e+09
-2.768852 -1.7639846 -0.86971211 37 0 1.681198e+09
-2.6092303 -2.4250793 -0.81309152 10 1 1.681198e+09
-38.146416 -24.238539 10.409593 2 14 1.681198e+09
-26.602369 -24.774679 9.7176247 10 15 1.681198e+09
-20.62933 -13.108974 3.8569763 6 12 1.681198e+09
-28.827013 -26.734562 7.628366 14 13 1.681198e+09
-43.60759 -27.697615 4.5166283 1 10 1.681198e+09
-23.940588 -22.13195 3.9931536 3 11 1.681198e+09
-4.3804278 -2.781935 0.089967147 9 8 1.681198e+09
-30.172642 -27.846043 2.149961 1 9 1.681198e+09
-4.5131001 -2.8639216 -0.27922326 28 6 1.681198e+09
-3.0918672 -2.8448846 -0.072732903 32 7 1.681198e+09
-2.8858383 -1.8299152 -0.4146795 8 4 1.681198e+09
-2.8994687 -2.6674521 -0.34096891 4 5 1.681198e+09
-2.7520807 -1.7425163 -0.62520576 43 2 1.681198e+09
-2.6847749 -2.4720354 -0.57318103 3 3 1.681198e+09
-2.7770345 -1.7555979 -0.87035877 36 0 1.681198e+09
-2.623466 -2.4204624 -0.81477606 10 1 1.681198e+09
-38.44099 -24.237759 10.466868 3 14 1.681198e+09
-30.002136 -27.746735 10.925382 20 15 1.681198e+09
-20.762697 -13.092197 3.8733656 7 12 1.681198e+09
-29.015825 -26.721897 7.6536255 17 13 1.681198e+09
-44.260902 -27.885401 4.5737152 1 10 1.681198e+09
-23.970175 -22.004608 3.9852431 3 11 1.681198e+09
-4.4138641 -2.780509 0.090447091 10 8 1.681198e+09
-30.442003 -27.888756 2.1618674 1 9 1.681198e+09
-4.6609282 -2.9337621 -0.28775617 23 6 1.681198e+09
-3.1441796 -2.8729002 -0.073736414 31 7 1.681198e+09
-2.8778176 -1.8100851 -0.41254979 9 4 1.681198e+09
-2.9142725 -2.6623604 -0.34162131 4 5 1.681198e+09
-2.7643828 -1.7368126 -0.62663424 40 2 1.681198e+09
-2.7024884 -2.4709909 -0.57513863 3 3 1.681198e+09
-2.7954242 -1.753587 -0.87423849 90 0 1.681198e+09
-2.6444578 -2.4228263 -0.81870681 10 1 1.681198e+09
-40.67355 -25.437454 11.049734 1 14 1.681198e+09
-30.165894 -27.693754 10.947999 24 15 1.681198e+09
-20.885912 -13.063144 3.8874137 9 12 1.681198e+09
-14.403611 -13.164487 3.7827275 3 13 1.681198e+09
-44.757107 -27.980238 4.6148963 76 10 1.681198e+09
-23.99 -21.868975 3.9758115 2 11 1.681198e+09
-4.4574633 -2.7862725 0.091145188 7 8 1.681198e+09
-30.686892 -27.91674 2.1723347 3 9 1.681198e+09
-4.5038271 -2.8130472 -0.27738538 32 6 1.681198e+09
-3.1375439 -2.8467727 -0.073343731 32 7 1.681198e+09
-2.8756955 -1.7947775 -0.41133282 9 4 1.681198e+09
-2.9382894 -2.6655757 -0.34336093 4 5 1.681198e+09
-2.7683451 -1.7258552 -0.62615806 40 2 1.681198e+09
-2.7330091 -2.4814878 -0.57983685 3 3 1.681198e+09
-2.8035796 -1.7450936 -0.87488514 106 0 1.681198e+09
-2.6474991 -2.4086552 -0.8170222 9 1 1.681198e+09
-40.525867 -25.158537 10.986843 1 14 1.681198e+09
-30.18976 -27.531721 10.923443 14 15 1.681198e+09
-20.931215 -12.995114 3.887804 10 12 1.681198e+09
-14.405406 -13.078699 3.7717662 4 13 1.681198e+09
-45.180431 -28.025999 4.6484513 39 10 1.681198e+09
-30.653111 -27.749382 5.0652957 28 11 1.681198e+09
-4.4985442 -2.7912333 0.091799647 34 8 1.681198e+09
-30.73114 -27.771297 2.1689327 22 9 1.681198e+09
-4.727479 -2.9308944 -0.29064423 24 6 1.681198e+09
-3.1251988 -2.8157015 -0.072820164 35 7 1.681198e+09
-2.8900719 -1.7904545 -0.41254979 9 4 1.681198e+09
-2.950809 -2.6591561 -0.34379584 4 5 1.681198e+09
-2.7827041 -1.7213415 -0.62806273 40 2 1.681198e+09
-2.7563086 -2.4851782 -0.58296901 3 3 1.681198e+09
-2.8055429 -1.7327607 -0.87359184 148 0 1.681198e+09
-2.6626933 -2.4064057 -0.81926829 8 1 1.681198e+09
-40.603073 -25.010536 10.984035 10 14 1.681198e+09
-30.258835 -27.401855 10.913751 20 15 1.681198e+09
-20.997475 -12.934922 3.8917062 9 12 1.681198e+09
-14.401767 -12.983954 3.7588978 6 13 1.681198e+09
-45.62941 -28.095381 4.6850567 25 10 1.681198e+09
-30.747946 -27.640558 5.064992 17 11 1.681198e+09
-4.5210347 -2.7833724 0.092061445 8 8 1.681198e+09
nan nan nan 0 9 1.681198e+09
-4.6100712 -2.8359296 -0.28276768 23 6 1.681198e+09
-3.1512659 -2.8203433 -0.07321284 34 7 1.681198e+09
-2.902648 -1.7842505 -0.41346252 9 4 1.681198e+09
-2.974905 -2.662143 -0.34553546 4 5 1.681198e+09
-2.7907879 -1.7129002 -0.62853891 40 2 1.681198e+09
-2.7833421 -2.4920347 -0.5868842 3 3 1.681198e+09
-2.813333 -1.7247087 -0.87423849 219 0 1.681198e+09
-2.669266 -2.3954673 -0.81870681 7 1 1.681198e+09
-40.654789 -24.847055 10.97449 14 14 1.681198e+09
-30.381233 -27.32029 10.923443 7 15 1.681198e+09
-20.962431 -12.812617 3.8768778 6 12 1.681198e+09
-14.441517 -12.928691 3.7574682 10 13 1.681198e+09
-46.022617 -28.116396 4.7153435 36 10 1.681198e+09
-31.132996 -27.790871 5.1124535 17 11 1.681198e+09
-4.5669932 -2.7897136 0.092803173 31 8 1.681198e+09
-30.463926 -27.145782 2.1366155 1 9 1.681198e+09
-4.78619 -2.9212191 -0.29300719 25 6 1.681198e+09
-3.1704247 -2.8176389 -0.073431 31 7 1.681198e+09
-2.9152162 -1.7779806 -0.41437525 8 4 1.681198e+09
-2.9971986 -2.6633377 -0.34705767 4 5 1.681198e+09
-2.803041 -1.7069741 -0.62996739 40 2 1.681198e+09
-2.8086133 -2.4970896 -0.59040785 3 3 1.681198e+09
-2.8110809 -1.7098625 -0.87165201 110 0 1.681198e+09
-2.6794281 -2.3877583 -0.81926829 4 1 1.681198e+09
-40.639202 -24.643103 10.946975 14 14 1.681198e+09
-30.706964 -27.419994 11.006157 7 15 1.681198e+09
-20.895115 -12.671511 3.8561959 6 12 1.681198e+09
-14.460886 -12.855368 3.7507958 9 13 1.681198e+09
-46.39949 -28.124685 4.7438874 27 10 1.681198e+09
-31.471191 -27.896032 5.1520047 47 11 1.681198e+09
-4.6002221 -2.7879982 0.093283102 9 8 1.681198e+09
-31.564304 -27.929457 2.2070072 1 9 1.681198e+09
-4.6682038 -2.8269422 -0.28513065 24 6 1.681198e+09
-3.2088208 -2.8308344 -0.074085459 32 7 1.681198e+09
-2.9150338 -1.763943 -0.41346252 9 4 1.681198e+09
-3.0162692 -2.6605828 -0.34814495 4 5 1.681198e+09
-2.8110833 -1.6984475 -0.63044351 39 2 1.681198e+09
-2.8339536 -2.5019989 -0.5939315 3 3 1.681198e+09
-2.8256025 -1.704533 -0.87423849 74 0 1.681198e+09
-2.6644683 -2.3569078 -0.81196851 3 1 1.681198e+09
-40.660263 -24.462168 10.929567 14 14 1.681198e+09
-30.938 -27.432823 11.054623 10 15 1.681198e+09
-20.890554 -12.569219 3.8472207 6 12 1.681198e+09
-14.446807 -12.752826 3.7355449 9 13 1.681198e+09
-46.841652 -28.158442 4.7785316 4 10 1.681198e+09
-31.665226 -27.871271 5.1678252 60 11 1.681198e+09
-4.6446948 -2.7917113 0.093981199 31 8 1.681198e+09
-31.803381 -27.933868 2.2165587 1 9 1.681198e+09
-4.8433623 -2.9087353 -0.29523888 24 6 1.681198e+09
-3.2487378 -2.8460014 -0.074783556 30 7 1.681198e+09
-2.9363775 -1.7621776 -0.41559219 8 4 1.681198e+09
-3.0405109 -2.6631827 -0.34988457 4 5 1.681198e+09
-2.8254178 -1.6936675 -0.63234818 38 2 1.681198e+09
-2.8537984 -2.5018706 -0.59628057 3 3 1.681198e+09
-2.8336086 -1.6958987 -0.87488514 80 0 1.681198e+09
-2.6434278 -2.3218315 -0.802984 3 1 1.681198e+09
-39.552967 -23.599045 10.608374 29 14 1.681198e+09
-31.255859 -27.510744 11.132167 14 15 1.681198e+09
-20.889828 -12.464733 3.8386357 6 12 1.681198e+09
-14.449162 -12.660962 3.7241068 8 13 1.681198e+09
-47.177086 -28.136354 4.8027172 1 10 1.681198e+09
-31.902437 -27.883059 5.1906433 45 11 1.681198e+09
-31.669538 -18.873339 0.64290297 234 8 1.681198e+09
-31.98159 -27.893251 2.2221847 20 9 1.681198e+09
-4.7247801 -2.8151779 -0.28736234 31 6 1.681198e+09
-3.2925682 -2.8642099 -0.075568914 30 7 1.681198e+09
-2.9702368 -1.7684057 -0.41954732 8 4 1.681198e+09
-3.0572977 -2.6590989 -0.35075438 4 5 1.681198e+09
-2.8376424 -1.6875545 -0.63377666 39 2 1.681198e+09
-2.8848383 -2.5113757 -0.60097879 3 3 1.681198e+09
-2.8395109 -1.6859971 -0.87488514 90 0 1.681198e+09
nan nan nan 0 1 1.681198e+09
-40.588978 -24.034973 10.864991 14 14 1.681198e+09
-31.446903 -27.494385 11.167708 17 15 1.681198e+09
-20.892799 -12.372746 3.8316116 7 12 1.681198e+09
-14.439248 -12.56785 3.710762 7 13 1.681198e+09
-47.579384 -28.151579 4.8336577 30 10 1.681198e+09
-32.130749 -27.885395 5.2119398 39 11 1.681198e+09
-31.777136 -18.794937 0.64381921 237 8 1.681198e+09
-32.172024 -27.872061 2.2289884 25 9 1.681198e+09
-4.7813745 -2.8274364 -0.29025039 21 6 1.681198e+09
-3.3252254 -2.8723307 -0.076092489 30 7 1.681198e+09
nan nan nan 0 4 1.681198e+09
-3.0830436 -2.663619 -0.35271147 4 5 1.681198e+09
-2.8540881 -1.6838692 -0.63615751 38 2 1.681198e+09
-2.930908 -2.5336299 -0.60880911 3 3 1.681198e+09
-2.8474603 -1.6772997 -0.87553179 255 0 1.681198e+09
-2.3538764 -2.0385833 -0.7097705 12 1 1.681198e+09
-40.657928 -23.884508 10.861061 10 14 1.681198e+09
-31.571861 -27.409782 11.178048 20 15 1.681198e+09
-20.903925 -12.28098 3.8257585 7 12 1.681198e+09
-14.43105 -12.472426 3.6974175 7 13 1.681198e+09
-47.691803 -28.004992 4.8356185 20 10 1.681198e+09
-32.350056 -27.87837 5.2317152 32 11 1.681198e+09
-31.864109 -18.696552 0.64425558 176 8 1.681198e+09
nan nan nan 0 9 1.681198e+09
-4.8105984 -2.8220923 -0.29143187 29 6 1.681198e+09
-3.3636656 -2.8851459 -0.076746956 31 7 1.681198e+09
-4.3077021 -2.5242577 -0.60787207 8 4 1.681198e+09
-3.1041179 -2.6620414 -0.35401618 4 5 1.681198e+09
-2.864186 -1.6763735 -0.63710988 39 2 1.681198e+09
-2.945349 -2.5282154 -0.60998368 3 3 1.681198e+09
-2.8532977 -1.6673499 -0.87553179 255 0 1.681198e+09
-2.3687122 -2.0363054 -0.71201658 12 1 1.681198e+09
-40.661064 -23.695829 10.839723 7 14 1.681198e+09
-31.707588 -27.334106 11.192265 17 15 1.681198e+09
-20.895458 -12.178098 3.8163929 7 12 1.681198e+09
-14.42795 -12.382009 3.6855028 7 13 1.681198e+09
-47.748932 -27.803694 4.8310428 20 10 1.681198e+09
-32.586681 -27.884684 5.2542295 31 11 1.681198e+09
-31.93026 -18.578377 0.64421189 138 8 1.681198e+09
nan nan nan 0 9 1.681198e+09
-4.9633613 -2.8872511 -0.30009606 23 6 1.681198e+09
-3.3889263 -2.8863685 -0.077096 30 7 1.681198e+09
-3.6152046 -2.1010242 -0.50838548 8 4 1.681198e+09
-3.1266522 -2.6625078 -0.3555384 4 5 1.681198e+09
-2.8827586 -1.6737524 -0.63996685 34 2 1.681198e+09
nan nan nan 0 3 1.681198e+09
-2.8570108 -1.65617 -0.87488514 255 0 1.681198e+09
-2.4165168 -2.0628815 -0.72437018 10 1 1.681198e+09
-40.806705 -23.580767 10.855446 1 14 1.681198e+09
-31.858931 -27.261679 11.210358 20 15 1.681198e+09
-20.9314 -12.096488 3.814832 1 12 1.681198e+09
-14.432143 -12.294023 3.6750176 7 13 1.681198e+09
-47.830593 -27.628128 4.8295174 1 10 1.681198e+09
-32.831299 -27.896103 5.2779598 37 11 1.681198e+09
-4.8291016 -2.7889395 0.096729957 7 8 1.681198e+09
-3.3386586 -2.8253939 0.22739972 2 9 1.681198e+09
-4.8977146 -2.8262582 -0.29550144 27 6 1.681198e+09
-3.3494003 -2.832504 -0.075961597 19 7 1.681198e+09
-3.5988641 -2.0747693 -0.50503886 17 4 1.681198e+09
-3.143527 -2.6580184 -0.35640821 4 5 1.681198e+09
-2.9162393 -1.6795888 -0.64615703 35 2 1.681198e+09
-3.3112576 -2.8031013 -0.68241435 10 3 1.681198e+09
-2.8627744 -1.6461871 -0.87488514 162 0 1.681198e+09
-2.4923759 -2.1128168 -0.74514669 10 1 1.681198e+09
-6.200418 -3.5573304 1.6396596 22 14 1.681198e+09
-31.965714 -27.169956 11.216173 22 15 1.681198e+09
-6.2160654 -3.5662885 1.1269675 13 12 1.681198e+09
-14.43537 -12.214383 3.6654854 7 13 1.681198e+09
-6.2421684 -3.5783539 0.62643194 21 10 1.681198e+09
-33.070705 -27.901354 5.3007779 31 11 1.681198e+09
-4.8795357 -2.7965126 0.097558945 43 8 1.681198e+09
-3.3499191 -2.8159156 0.22753055 4 9 1.681198e+09
-4.8983922 -2.8050411 -0.29497632 32 6 1.681198e+09
-3.3133652 -2.7821696 -0.074914455 39 7 1.681198e+09
-3.5820262 -2.049279 -0.50169218 12 4 1.681198e+09
-3.1656609 -2.6588061 -0.35793036 4 5 1.681198e+09
-2.9391372 -1.6791296 -0.64996636 35 2 1.681198e+09
-3.3285756 -2.7978888 -0.68398041 47 3 1.681198e+09
-2.8622081 -1.6325978 -0.87294525 96 0 1.681198e+09
-2.5607896 -2.1564085 -0.76367712 10 1 1.681198e+09
-6.1386828 -3.4935107 1.6200062 22 14 1.681198e+09
-32.102806 -27.094044 11.231037 25 15 1.681198e+09
-6.1619358 -3.5067225 1.1148707 24 12 1.681198e+09
-14.436589 -12.129178 3.6550004 7 13 1.681198e+09
-6.1847191 -3.5182452 0.61945945 20 10 1.681198e+09
-33.306747 -27.902084 5.3229876 28 11 1.681198e+09
-4.8892679 -2.7794628 0.097558945 9 8 1.681198e+09
-3.3539827 -2.7993994 0.22713803 4 9 1.681198e+09
-4.9168386 -2.7928553 -0.29550144 4 6 1.681198e+09
-3.3345656 -2.7802029 -0.075176239 21 7 1.681198e+09
-3.5783641 -2.0306437 -0.50017101 27 4 1.681198e+09
-3.1925859 -2.6615577 -0.35988748 4 5 1.681198e+09
-2.9706106 -1.6833667 -0.6556803 39 2 1.681198e+09
-3.3345339 -2.7830844 -0.68319738 17 3 1.681198e+09
-2.8636847 -1.6202208 -0.87165201 96 0 1.681198e+09
-2.6265533 -2.1955214 -0.78108448 12 1 1.681198e+09
-6.1953969 -3.4971986 1.6317984 21 14 1.681198e+09
-32.211994 -26.994228 11.236206 28 15 1.681198e+09
-6.2128515 -3.5070322 1.1218947 19 12 1.681198e+09
-14.443044 -12.048834 3.6459453 6 13 1.681198e+09
-6.2301159 -3.5138981 0.62272781 17 10 1.681198e+09
-33.562263 -27.917377 5.3482394 24 11 1.681198e+09
-4.9604034 -2.7958715 0.098780617 1 8 1.681198e+09
-3.377667 -2.7982512 0.22805393 7 9 1.681198e+09
-4.9466233 -2.7858353 -0.29668292 1 6 1.681198e+09
-3.365412 -2.7861025 -0.075656183 2 7 1.681198e+09
-3.5771303 -2.0126512 -0.49895403 29 4 1.681198e+09
-3.2095242 -2.6567578 -0.36075732 4 5 1.681198e+09
-2.9893088 -1.6801956 -0.65853733 38 2 1.681198e+09
-3.3271332 -2.7572298 -0.67967367 1 3 1.681198e+09
-2.884069 -1.6184797 -0.87617838 96 0 1.681198e+09
-2.6566706 -2.2050402 -0.78782278 23 1 1.681198e+09
-6.2421908 -3.4934955 1.6407827 28 14 1.681198e+09
-32.321857 -26.885252 11.240084 22 15 1.681198e+09
-6.2558355 -3.5011139 1.1273578 27 12 1.681198e+09
-14.466318 -11.978593 3.6407027 3 13 1.681198e+09
-6.2640815 -3.5042834 0.62490672 25 10 1.681198e+09
-33.704544 -27.827362 5.3546286 25 11 1.681198e+09
-5.0945172 -2.848027 0.10126758 30 8 1.681198e+09
-3.3912666 -2.7896197 0.22831559 2 9 1.681198e+09
nan nan nan 0 6 1.681198e+09
-3.4117734 -2.804534 -0.076485164 1 7 1.681198e+09
-3.5776317 -1.9965273 -0.49804127 29 4 1.681198e+09
-3.2495353 -2.6708744 -0.36423659 3 5 1.681198e+09
-3.0104582 -1.677583 -0.66187048 42 2 1.681198e+09
-3.3886583 -2.7874224 -0.69024467 2 3 1.681198e+09
-2.9108083 -1.6201363 -0.88264465 96 0 1.681198e+09
nan nan nan 0 1 1.681198e+09
-6.2415662 -3.4645946 1.6374136 27 14 1.681198e+09
-30.143995 -24.895775 10.451714 7 15 1.681198e+09
-6.2529035 -3.47087 1.1246263 27 12 1.681198e+09
-14.466347 -11.893723 3.6302176 3 13 1.681198e+09
-6.2762756 -3.4823964 0.62490672 28 10 1.681198e+09
-33.678665 -27.608847 5.3351574 31 11 1.681198e+09
-5.0716319 -2.8120546 0.10061312 52 8 1.681198e+09
-3.4222353 -2.7951591 0.22975484 2 9 1.681198e+09
nan nan nan 0 6 1.681198e+09
-3.4196076 -2.7910252 -0.076441541 12 7 1.681198e+09
-3.584579 -1.9840269 -0.49804127 34 4 1.681198e+09
nan nan nan 0 5 1.681198e+09
-3.0227413 -1.6706226 -0.66329896 32 2 1.681198e+09
-3.4232073 -2.795908 -0.69533443 24 3 1.681198e+09
-2.9249048 -1.6146297 -0.88523114 22 0 1.681198e+09
-2.2708604 -1.8572918 -0.66821748 16 1 1.681198e+09
nan nan nan 0 14 1.681198e+09
nan nan nan 0 15 1.681198e+09
nan nan nan 0 12 1.681198e+09
-33.623592 -27.455868 8.4233246 14 13 1.681198e+09
-6.1901927 -3.4064586 0.61510164 8 10 1.681198e+09
-33.677677 -27.421797 5.3205533 30 11 1.681198e+09
-5.1602798 -2.837672 0.10218383 25 8 1.681198e+09
-33.739613 -27.413548 2.2764831 1 9 1.681198e+09
-5.3869386 -2.959779 -0.32136273 32 6 1.681198e+09
-3.4856 -2.8247688 -0.077706836 40 7 1.681198e+09
-3.5914829 -1.9715024 -0.49804127 10 4 1.681198e+09
-3.5155659 -2.8490884 -0.39207074 34 5 1.681198e+09
-3.054095 -1.6747371 -0.66901296 24 2 1.681198e+09
-3.3462441 -2.7144499 -0.67771614 12 3 1.681198e+09
-2.9665434 -1.6241062 -0.89622378 16 0 1.681198e+09
-2.2565546 -1.832428 -0.66204071 15 1 1.681198e+09
-6.0575924 -3.308804 1.5829455 4 14 1.681198e+09
-29.672421 -24.168331 10.230712 2 15 1.681198e+09
-6.0661426 -3.3134577 1.0867745 4 12 1.681198e+09
-33.617256 -27.265368 8.3990183 17 13 1.681198e+09
-6.0927262 -3.325202 0.60420722 6 10 1.681198e+09
-33.678646 -27.227619 5.3056459 20 11 1.681198e+09
-5.1828289 -2.8277233 0.10244562 10 8 1.681198e+09
-33.717659 -27.210566 2.2688944 1 9 1.681198e+09
-5.4252243 -2.9574249 -0.3230693 44 6 1.681198e+09
-3.5207355 -2.8329818 -0.078274041 30 7 1.681198e+09
-3.5871027 -1.9536521 -0.4965201 9 4 1.681198e+09
-3.5385642 -2.8483603 -0.39359298 36 5 1.681198e+09
-3.1052113 -1.6886663 -0.67901242 10 2 1.681198e+09
-3.3345642 -2.6856933 -0.6734094 10 3 1.681198e+09
-2.9976692 -1.6275555 -0.90398329 12 0 1.681198e+09
-2.258831 -1.82187 -0.66091764 21 1 1.681198e+09
-6.058394 -3.2818398 1.5801378 4 14 1.681198e+09
-29.856115 -24.145107 10.26496 7 15 1.681198e+09
-6.0646424 -3.2852092 1.0844331 6 12 1.681198e+09
-33.719864 -27.154013 8.4009247 1 13 1.681198e+09
-6.0949583 -3.3002384 0.60333562 4 10 1.681198e+09
-34.590034 -27.765478 5.4340353 2 11 1.681198e+09
-5.2256498 -2.8274477 0.10310008 10 8 1.681198e+09
-34.786499 -27.87335 2.3343143 1 9 1.681198e+09
-5.2817602 -2.8554037 -0.31388003 39 6 1.681198e+09
-3.5515721 -2.8384786 -0.078753978 29 7 1.681198e+09
-3.5960844 -1.9422972 -0.49682435 8 4 1.681198e+09
-3.5601487 -2.8453319 -0.3948977 36 5 1.681198e+09
-3.4330306 -1.8512381 -0.7499612 34 2 1.681198e+09
-3.3554795 -2.6833022 -0.6757586 6 3 1.681198e+09
-3.0434573 -1.6393447 -0.91626924 10 0 1.681198e+09
-2.2594798 -1.8093969 -0.65923303 29 1 1.681198e+09
-6.0462031 -3.2479966 1.573961 4 14 1.681198e+09
-30.034367 -24.116358 10.297271 10 15 1.681198e+09
-6.0521412 -3.2511709 1.0801407 7 12 1.681198e+09
-34.845596 -27.860771 8.6573324 1 13 1.681198e+09
-6.0888848 -3.2695215 0.60159248 6 10 1.681198e+09
-35.072868 -27.952366 5.4945788 1 11 1.681198e+09
-5.2729373 -2.8292704 0.10384181 17 8 1.681198e+09
-35.162945 -27.974049 2.3530245 14 9 1.681198e+09
-5.320303 -2.8522763 -0.3155866 28 6 1.681198e+09
-3.567328 -2.8307312 -0.078884877 35 7 1.681198e+09
-3.6115935 -1.9344153 -0.49804127 8 4 1.681198e+09
-3.6636293 -2.9072897 -0.40533552 31 5 1.681198e+09
-3.4611192 -1.8508067 -0.75472277 30 2 1.681198e+09
-3.3493686 -2.6592736 -0.67262644 3 3 1.681198e+09
-3.1620865 -1.688957 -0.95054042 32 0 1.681198e+09
-2.2657819 -1.8014987 -0.65923303 32 1 1.681198e+09
-6.101078 -3.248703 1.5851916 4 14 1.681198e+09
-30.184874 -24.05579 10.318595 7 15 1.681198e+09
-6.1337738 -3.2660885 1.0926279 6 12 1.681198e+09
-35.12048 -27.870186 8.7002268 34 13 1.681198e+09
-6.1404052 -3.2682354 0.60551453 4 10 1.681198e+09
-35.316162 -27.945269 5.5173969 1 11 1.681198e+09
-5.331831 -2.8357332 0.10480169 24 8 1.681198e+09
-35.39259 -27.945559 2.3615291 17 9 1.681198e+09
-5.317492 -2.8257318 -0.31479895 8 6 1.681198e+09
-3.6051495 -2.8393164 -0.079495706 36 7 1.681198e+09
-3.6318128 -1.9281414 -0.49986678 8 4 1.681198e+09
-3.7016306 -2.9154425 -0.40837985 29 5 1.681198e+09
-3.4740646 -1.8421603 -0.75615132 30 2 1.681198e+09
-3.3625054 -2.6506269 -0.6734094 4 3 1.681198e+09
-3.1340983 -1.6592935 -0.94019437 32 0 1.681198e+09
-2.2761893 -1.7962064 -0.6603561 44 1 1.681198e+09
-6.2346153 -3.2932796 1.6171986 28 14 1.681198e+09
-30.258799 -23.951067 10.316657 4 15 1.681198e+09
-6.2515745 -3.3022184 1.1117488 29 12 1.681198e+09
-35.374603 -27.881195 8.7402601 22 13 1.681198e+09
-6.2685266 -3.3083632 0.61706269 30 10 1.681198e+09
-35.552021 -27.930677 5.5389981 7 11 1.681198e+09
-5.3699498 -2.8331921 0.1053689 39 8 1.681198e+09
-35.677578 -27.979038 2.3743515 14 9 1.681198e+09
-5.6647806 -2.9861116 -0.33488414 24 6 1.681198e+09
-3.6524227 -2.8560066 -0.080324695 37 7 1.681198e+09
-3.6491668 -1.9218643 -0.50138795 7 4 1.681198e+09
-3.8053658 -2.9768991 -0.4188177 24 5 1.681198e+09
-3.4761283 -1.8277398 -0.75519896 31 2 1.681198e+09
-3.3620234 -2.6312542 -0.67145187 8 3 1.681198e+09
-3.1527035 -1.655072 -0.94407409 29 0 1.681198e+09
-2.2744734 -1.782625 -0.65810996 38 1 1.681198e+09
-6.2439151 -3.2703669 1.6166371 27 14 1.681198e+09
-30.197922 -23.731867 10.267546 7 15 1.681198e+09
-6.2564998 -3.2769406 1.1105782 25 12 1.681198e+09
-35.632111 -27.883091 8.7798176 20 13 1.681198e+09
-6.2728434 -3.2840939 0.616409 25 10 1.681198e+09
-35.809727 -27.931568 5.5639458 7 11 1.681198e+09
-5.4241104 -2.8375916 0.10624152 42 8 1.681198e+09
-35.954266 -27.993917 2.3862576 17 9 1.681198e+09
nan nan nan 0 6 1.681198e+09
-3.6860447 -2.8616571 -0.080848262 34 7 1.681198e+09
-3.6822538 -1.9228872 -0.50503886 6 4 1.681198e+09
-3.8555663 -2.9935155 -0.42316678 22 5 1.681198e+09
-3.4868407 -1.817862 -0.75615132 30 2 1.681198e+09
-3.3789806 -2.6255713 -0.67301798 4 3 1.681198e+09
-3.1734607 -1.6518548 -0.94860053 9 0 1.681198e+09
-2.2867534 -1.7787733 -0.65979457 16 1 1.681198e+09
-6.2401571 -3.240696 1.6127064 28 14 1.681198e+09
-33.42194 -26.077967 11.333783 10 15 1.681198e+09
-6.2547503 -3.2482562 1.1082368 24 12 1.681198e+09
-35.886192 -27.880518 8.8184214 14 13 1.681198e+09
-6.2715721 -3.2542019 0.61510164 25 10 1.681198e+09
-26.894657 -20.825773 4.1662664 10 11 1.681198e+09
-5.469985 -2.836091 0.10693961 38 8 1.681198e+09
-36.226509 -27.993248 2.3975101 17 9 1.681198e+09
-5.6638331 -2.9340217 -0.33357137 22 6 1.681198e+09
-3.7553606 -2.8946102 -0.082157202 30 7 1.681198e+09
nan nan nan 0 4 1.681198e+09
-3.8778191 -2.9891732 -0.42447153 19 5 1.681198e+09
-3.4975264 -1.8079318 -0.75710362 31 2 1.681198e+09
-3.3607769 -2.5926158 -0.66753668 4 3 1.681198e+09
-3.4067388 -1.7580543 -1.0171429 7 0 1.681198e+09
-2.2833202 -1.7633195 -0.65698695 23 1 1.681198e+09
-6.2454934 -3.2144601 1.6110218 28 14 1.681198e+09
nan nan nan 0 15 1.681198e+09
-6.253438 -3.2185326 1.1058955 24 12 1.681198e+09
-35.990082 -27.750299 8.8188982 4 13 1.681198e+09
-6.2718191 -3.2265964 0.61401224 25 10 1.681198e+09
-27.069174 -20.802675 4.1814785 17 11 1.681198e+09
-5.5087552 -2.8318281 0.10750682 36 8 1.681198e+09
-36.508205 -28.007971 2.4096782 28 9 1.681198e+09
-5.6473866 -2.900553 -0.33199605 23 6 1.681198e+09
-3.7892449 -2.8997352 -0.082680769 30 7 1.681198e+09
-5.2306185 -2.6831863 -0.7164858 1 4 1.681198e+09
-3.8921821 -2.9786494 -0.4249064 15 5 1.681198e+09
-3.5019445 -1.7939825 -0.75662744 31 2 1.681198e+09
-3.3702567 -2.5802805 -0.66753668 3 3 1.681198e+09
-3.3698475 -1.7241722 -1.0042104 7 0 1.681198e+09
-2.2855992 -1.7523676 -0.65586388 25 1 1.681198e+09
-6.2458253 -3.1871061 1.6082141 28 14 1.681198e+09
-32.654301 -25.104988 11.011973 61 15 1.681198e+09
-6.2382364 -3.1832223 1.1012127 24 12 1.681198e+09
-36.384857 -27.852768 8.8918171 10 13 1.681198e+09
-6.2675118 -3.1967664 0.61248696 25 10 1.681198e+09
-27.204746 -20.756231 4.1912136 20 11 1.681198e+09
-5.5698361 -2.8386731 0.10851033 31 8 1.681198e+09
-36.734833 -27.978699 2.4181826 39 9 1.681198e+09
-5.5440006 -2.8230779 -0.32530099 8 6 1.681198e+09
-3.8391218 -2.9167719 -0.083553389 28 7 1.681198e+09
-5.4301968 -2.7615952 -0.74265051 1 4 1.681198e+09
-3.8787758 -2.9469428 -0.42229697 15 5 1.681198e+09
-3.5147514 -1.7850786 -0.75805598 31 2 1.681198e+09
-3.3812077 -2.5699968 -0.66792822 2 3 1.681198e+09
-3.4340086 -1.7418684 -1.0216693 10 0 1.681198e+09
-2.291702 -1.7443788 -0.65586388 30 1 1.681198e+09
-6.2503901 -3.1619868 1.6065296 27 14 1.681198e+09
-33.519157 -25.584373 11.273685 37 15 1.681198e+09
-6.2449026 -3.1591992 1.1004323 24 12 1.681198e+09
-36.653793 -27.856285 8.9337578 14 13 1.681198e+09
-6.227509 -3.1490335 0.60747552 22 10 1.681198e+09
-71.851837 -54.453728 11.049397 242 11 1.681198e+09
-5.599793 -2.8293533 0.10890301 30 8 1.681198e+09
-36.75462 -27.791569 2.41308 7 9 1.681198e+09
-5.8190694 -2.9375207 -0.3409228 23 6 1.681198e+09
-3.8393095 -2.8958175 -0.083335236 28 7 1.681198e+09
-5.1517167 -2.5974786 -0.70309919 9 4 1.681198e+09
-3.8731437 -2.9213724 -0.42055735 19 5 1.681198e+09
-3.5228441 -1.7745165 -0.75853211 32 2 1.681198e+09
-3.4133403 -2.5766473 -0.67262644 3 3 1.681198e+09
-3.4638059 -1.7417942 -1.0287821 24 0 1.681198e+09
-2.3074837 -1.7437279 -0.6586715 29 1 1.681198e+09
-6.11058 -3.0658991 1.5677843 27 14 1.681198e+09
-33.534534 -25.420551 11.250422 30 15 1.681198e+09
-6.1295223 -3.0753837 1.0781895 20 12 1.681198e+09
-36.920288 -27.866184 8.9761744 17 13 1.681198e+09
-6.1471686 -3.0815399 0.59854203 20 10 1.681198e+09
-71.991905 -54.165287 11.041792 255 11 1.681198e+09
-5.6516109 -2.8320336 0.109732 25 8 1.681198e+09
nan nan nan 0 9 1.681198e+09
-5.8064513 -2.907037 -0.33961004 21 6 1.681198e+09
-3.8453956 -2.8793981 -0.083247975 30 7 1.681198e+09
-4.4189095 -2.2099278 -0.60148305 12 4 1.681198e+09
-3.8887851 -2.9129975 -0.42120969 23 5 1.681198e+09
-3.5312128 -1.7633041 -0.75900829 32 2 1.681198e+09
-3.449954 -2.5854771 -0.67810768 3 3 1.681198e+09
-3.4071739 -1.6984769 -1.01003 12 0 1.681198e+09
-2.3482828 -1.762444 -0.66877902 29 1 1.681198e+09
-6.1561489 -3.0618999 1.5767686 25 14 1.681198e+09
-33.352936 -25.100008 11.159954 10 15 1.681198e+09
-6.1711779 -3.0693564 1.0836526 16 12 1.681198e+09
-37.199974 -27.874016 9.0204973 22 13 1.681198e+09
-6.1952696 -3.0799763 0.60224617 17 10 1.681198e+09
-71.939987 -53.733971 11.004979 255 11 1.681198e+09
-5.7017632 -2.8322945 0.11051736 28 8 1.681198e+09
-37.537361 -27.983976 2.4519393 1 9 1.681198e+09
-5.771832 -2.8645658 -0.33698454 10 6 1.681198e+09
-3.8614364 -2.8704367 -0.083378866 31 7 1.681198e+09
nan nan nan 0 4 1.681198e+09
-3.8834569 -2.8868232 -0.41947004 22 5 1.681198e+09
-3.5329466 -1.7487917 -0.75805598 32 2 1.681198e+09
-3.4629166 -2.5763707 -0.67889071 4 3 1.681198e+09
-3.4325716 -1.6961931 -1.0158497 12 0 1.681198e+09
-2.3449693 -1.746534 -0.6659714 16 1 1.681198e+09
-6.2083192 -3.0608494 1.5874376 24 14 1.681198e+09
-33.542881 -25.060051 11.194202 17 15 1.681198e+09
-6.2283711 -3.0707157 1.0918474 16 12 1.681198e+09
-37.497875 -27.893419 9.0691099 28 13 1.681198e+09
-6.246736 -3.0770481 0.60616821 17 10 1.681198e+09
nan nan nan 0 11 1.681198e+09
-5.7457504 -2.8279252 0.11117182 39 8 1.681198e+09
-36.971382 -27.351694 2.4083698 59 9 1.681198e+09
-5.840549 -2.8720195 -0.34039772 16 6 1.681198e+09
-3.8915312 -2.8718016 -0.083815172 30 7 1.681198e+09
-4.2274413 -2.07658 -0.57318866 27 4 1.681198e+09
-3.8754873 -2.8599234 -0.41751295 27 5 1.681198e+09
-3.5434368 -1.7386088 -0.75900829 35 2 1.681198e+09
-3.4560122 -2.5525148 -0.6757586 4 3 1.681198e+09
-3.4081018 -1.6693428 -1.0067968 3 0 1.681198e+09
-2.4469211 -1.8094589 -0.69348621 16 1 1.681198e+09
-6.2567124 -3.0562418 1.5969836 23 14 1.681198e+09
-33.628689 -24.932627 11.192265 14 15 1.681198e+09
-6.2750893 -3.0651991 1.098091 15 12 1.681198e+09
-37.777546 -27.88699 9.1120043 36 13 1.681198e+09
-6.3022041 -3.0770669 0.61052597 16 10 1.681198e+09
nan nan nan 0 11 1.681198e+09
-5.8050165 -2.8319495 0.1121317 30 8 1.681198e+09
-38.191372 -28.048677 2.4815092 42 9 1.681198e+09
-5.8460498 -2.8494279 -0.34013516 24 6 1.681198e+09
-3.9015322 -2.8582001 -0.083815172 28 7 1.681198e+09
-4.1944981 -2.0422728 -0.56771231 39 4 1.681198e+09
-3.8854468 -2.8463781 -0.41751295 31 5 1.681198e+09
-3.5627294 -1.7326638 -0.76186532 45 2 1.681198e+09
-3.4708703 -2.544822 -0.67693311 7 3 1.681198e+09
-3.4486749 -1.6742954 -1.0171429 3 0 1.681198e+09
-2.5395317 -1.8644698 -0.71819341 12 1 1.681198e+09
-6.3128605 -3.0577672 1.6087757 23 14 1.681198e+09
-33.613953 -24.749365 11.159954 14 15 1.681198e+09
-6.3385625 -3.070195 1.1074563 16 12 1.681198e+09
-38.073666 -27.911034 9.1610928 32 13 1.681198e+09
-6.3599896 -3.0778205 0.61510164 15 10 1.681198e+09
nan nan nan 0 11 1.681198e+09
-5.9291487 -2.8681674 0.11435688 28 8 1.681198e+09
-38.499989 -28.079309 2.4955091 47 9 1.681198e+09
-5.8779473 -2.8408842 -0.34144792 30 6 1.681198e+09
-3.9034047 -2.8386757 -0.083640657 32 7 1.681198e+09
-4.1967778 -2.026196 -0.56710386 44 4 1.681198e+09
-4.0176315 -2.9229681 -0.4307777 25 5 1.681198e+09
-3.5687559 -1.720217 -0.76186532 107 2 1.681198e+09
-3.4597843 -2.5181391 -0.67301798 9 3 1.681198e+09
-3.445792 -1.6580626 -1.0145564 4 0 1.681198e+09
nan nan nan 0 1 1.681198e+09
-6.3740134 -3.0599492 1.6216909 24 14 1.681198e+09
-33.633854 -24.583418 11.137983 20 15 1.681198e+09
-6.3848629 -3.0651407 1.1136999 12 12 1.681198e+09
-38.327614 -27.892056 9.1987438 20 13 1.681198e+09
-6.4150739 -3.0782506 0.61945945 8 10 1.681198e+09
-27.2202 -19.741941 4.1185002 1 11 1.681198e+09
-5.8985481 -2.8280125 0.11357152 10 8 1.681198e+09
-38.757511 -28.060425 2.5058453 38 9 1.681198e+09
nan nan nan 0 6 1.681198e+09
-3.9694977 -2.8667459 -0.084862322 31 7 1.681198e+09
-4.1971083 -2.0083232 -0.56619108 45 4 1.681198e+09
-4.1044822 -2.9644072 -0.43904096 23 5 1.681198e+09
-3.5813832 -1.71092 -0.76329374 255 2 1.681198e+09
-3.4485545 -2.491565 -0.66910279 10 3 1.681198e+09
-3.4796121 -1.6601325 -1.0229626 31 0 1.681198e+09
-2.2564595 -1.6324564 -0.63396436 35 1 1.681198e+09
-6.3956566 -3.0429118 1.6244985 1 14 1.681198e+09
-33.613911 -24.389265 11.103087 1 15 1.681198e+09
-6.4490461 -3.0682836 1.1230654 1 12 1.681198e+09
-38.518238 -27.825649 9.2211437 7 13 1.681198e+09
nan nan nan 0 10 1.681198e+09
-27.236595 -19.609104 4.1105905 3 11 1.681198e+09
-5.9332218 -2.8191996 0.11405147 21 8 1.681198e+09
-39.064026 -28.075062 2.5193222 32 9 1.681198e+09
-6.1525187 -2.9206975 -0.35628206 22 6 1.681198e+09
-4.0545959 -2.9068286 -0.086476669 27 7 1.681198e+09
-4.2108207 -1.9968477 -0.56710386 45 4 1.681198e+09
-4.0905313 -2.932626 -0.43643153 25 5 1.681198e+09
-3.5939898 -1.701556 -0.76472229 255 2 1.681198e+09
nan nan nan 0 3 1.681198e+09
-3.4853859 -1.6479762 -1.0229626 10 0 1.681198e+09
-2.2759786 -1.6345401 -0.63789499 29 1 1.681198e+09
nan nan nan 0 14 1.681198e+09
-32.552544 -23.445957 10.725059 22 15 1.681198e+09
nan nan nan 0 12 1.681198e+09
-38.934212 -27.919888 9.2973986 31 13 1.681198e+09
nan nan nan 0 10 1.681198e+09
-27.222111 -19.454744 4.0981164 4 11 1.681198e+09
-5.9814763 -2.8165641 0.1147932 21 8 1.681198e+09
-39.346718 -28.070492 2.5312283 29 9 1.681198e+09
-6.0790815 -2.8599021 -0.35142484 24 6 1.681198e+09
-4.0387621 -2.8730874 -0.085909463 29 7 1.681198e+09
-4.2267509 -1.9863557 -0.56832081 84 4 1.681198e+09
-4.0870562 -2.9074953 -0.43490934 24 5 1.681198e+09
-3.6132412 -1.6952491 -0.76757926 237 2 1.681198e+09
-3.5522914 -2.5290997 -0.68593806 3 3 1.681198e+09
-3.5089018 -1.6433767 -1.0281355 9 0 1.681198e+09
-2.28988 -1.6318556 -0.64014113 23 1 1.681198e+09
nan nan nan 0 14 1.681198e+09
-33.655678 -24.062693 11.061085 20 15 1.681198e+09
nan nan nan 0 12 1.681198e+09
-39.231354 -27.926149 9.3450584 29 13 1.681198e+09
nan nan nan 0 10 1.681198e+09
-27.233194 -19.319395 4.0895977 7 11 1.681198e+09
-6.025743 -2.810462 0.11544766 10 8 1.681198e+09
-39.653095 -28.070354 2.5443122 28 9 1.681198e+09
-6.0963125 -2.8407638 -0.35181868 24 6 1.681198e+09
-4.067131 -2.8719652 -0.086302139 29 7 1.681198e+09
-4.2475023 -1.9771284 -0.57014626 105 4 1.681198e+09
-4.076849 -2.8788261 -0.43273479 24 5 1.681198e+09
-3.6347187 -1.6898623 -0.77091247 130 2 1.681198e+09
-3.5308738 -2.4952765 -0.68006521 1 3 1.681198e+09
-3.5233808 -1.6351808 -1.030722 24 0 1.681198e+09
-2.3174138 -1.6393642 -0.6463179 24 1 1.681198e+09
nan nan nan 0 14 1.681198e+09
-33.639259 -23.865103 11.026836 20 15 1.681198e+09
nan nan nan 0 12 1.681198e+09
-39.535885 -27.925192 9.3931942 31 13 1.681198e+09
nan nan nan 0 10 1.681198e+09
-27.222664 -19.162306 4.0774283 7 11 1.681198e+09
-6.1081338 -2.8229494 0.11684385 27 8 1.681198e+09
-39.959183 -28.078196 2.557658 29 9 1.681198e+09
-6.1265931 -2.8288805 -0.35300016 8 6 1.681198e+09
-4.0771313 -2.8577509 -0.086302139 28 7 1.681198e+09
-4.2588854 -1.9643668 -0.57075477 127 4 1.681198e+09
-4.0603776 -2.8459702 -0.42990792 31 5 1.681198e+09
-3.6475766 -1.6796055 -0.77234095 90 2 1.681198e+09
nan nan nan 0 3 1.681198e+09
-3.5356507 -1.6258959 -1.0326619 7 0 1.681198e+09
-2.4027781 -1.6873935 -0.66877902 21 1 1.681198e+09
-45.424828 -20.818205 11.509625 1 14 1.681198e+09
-33.603893 -23.664087 10.988064 20 15 1.681198e+09
-61.565163 -28.21463 10.696436 1 12 1.681198e+09
-39.854149 -27.942011 9.4456196 32 13 1.681198e+09
-46.681587 -21.384247 4.4891744 1 10 1.681198e+09
-27.22023 -19.018833 4.0670838 7 11 1.681198e+09
-6.1543174 -2.8182533 0.11754195 20 8 1.681198e+09
-40.218708 -28.051384 2.5679944 22 9 1.681198e+09
-6.1818404 -2.828239 -0.35562566 24 6 1.681198e+09
-4.0706768 -2.8320663 -0.085953094 35 7 1.681198e+09
-4.2702308 -1.9515496 -0.57136321 103 4 1.681198e+09
-4.2153473 -2.9328997 -0.44534716 1 5 1.681198e+09
-3.6735168 -1.6760226 -0.77662641 39 2 1.681198e+09
-4.0812354 -2.8414907 -0.78303427 7 3 1.681198e+09
-3.5610869 -1.622547 -1.0384815 10 0 1.681198e+09
nan nan nan 0 1 1.681198e+09
-45.492779 -20.657501 11.508502 7 14 1.681198e+09
-33.658581 -23.527271 10.979016 17 15 1.681198e+09
-61.600323 -27.970972 10.68551 10 12 1.681198e+09
-40.104527 -27.909275 9.4818411 22 13 1.681198e+09
-46.694717 -21.19338 4.4832911 3 10 1.681198e+09
-27.246458 -18.903 4.0616074 10 11 1.681198e+09
-6.2187548 -2.8215265 0.1185891 10 8 1.681198e+09
-40.554474 -28.075691 2.5831718 27 9 1.681198e+09
-6.250802 -2.8334267 -0.35903883 8 6 1.681198e+09
-4.2018151 -2.9017532 -0.088527322 27 7 1.681198e+09
-4.2860608 -1.9407228 -0.57258016 44 4 1.681198e+09
nan nan nan 0 5 1.681198e+09
-3.6857643 -1.6668627 -0.77805495 36 2 1.681198e+09
nan nan nan 0 3 1.681198e+09
-3.5777359 -1.6150696 -1.0417147 16 0 1.681198e+09
-2.6326249 -1.8220096 -0.72998548 32 1 1.681198e+09
-45.567699 -20.509527 11.510186 3 14 1.681198e+09
-33.645161 -23.352175 10.949292 17 15 1.681198e+09
-61.591408 -27.720942 10.667951 10 12 1.681198e+09
-40.439121 -27.943571 9.539032 35 13 1.681198e+09
-46.747963 -21.021063 4.4813304 10 10 1.681198e+09
-27.230532 -18.751471 4.0494375 10 11 1.681198e+09
-6.2805157 -2.8244557 0.11959261 21 8 1.681198e+09
nan nan nan 0 9 1.681198e+09
-6.3193793 -2.8392701 -0.362452 22 6 1.681198e+09
-4.1913133 -2.8729177 -0.088091016 28 7 1.681198e+09
-4.3060579 -1.9325902 -0.57440561 44 4 1.681198e+09
-2.8968184 -1.9846298 -0.30356672 6 5 1.681198e+09
-3.7251623 -1.6690247 -0.78519744 36 2 1.681198e+09
nan nan nan 0 3 1.681198e+09
-3.5987868 -1.6094658 -1.046241 17 0 1.681198e+09
-2.6767614 -1.8395395 -0.74065453 39 1 1.681198e+09
-40.895332 -18.235344 10.31301 3 14 1.681198e+09
-33.664822 -23.192106 10.929258 17 15 1.681198e+09
-14.557876 -6.49261 2.5134342 2 12 1.681198e+09
-40.665932 -27.891092 9.5695333 34 13 1.681198e+09
nan nan nan 0 10 1.681198e+09
-27.226173 -18.608686 4.0390935 10 11 1.681198e+09
-6.33144 -2.8208158 0.12037797 9 8 1.681198e+09
nan nan nan 0 9 1.681198e+09
-6.3748732 -2.8374872 -0.3650775 8 6 1.681198e+09
-4.2095785 -2.8639016 -0.088265538 27 7 1.681198e+09
-4.3263841 -1.9235913 -0.576231 44 4 1.681198e+09
-2.9143627 -1.9810129 -0.30465397 6 5 1.681198e+09
-3.8319287 -1.7007731 -0.80662495 23 2 1.681198e+09
nan nan nan 0 3 1.681198e+09
-3.6198416 -1.6037345 -1.0507674 17 0 1.681198e+09
-2.6854966 -1.8310918 -0.74121606 43 1 1.681198e+09
-46.177742 -20.397602 11.628108 4 14 1.681198e+09
-33.66185 -23.017193 10.902118 14 15 1.681198e+09
-14.544311 -6.4257917 2.5071907 10 12 1.681198e+09
-40.58453 -27.627424 9.5275936 34 13 1.681198e+09
-64.499702 -28.463087 6.1649618 3 10 1.681198e+09
-27.225262 -18.468948 4.0293584 10 11 1.681198e+09
-6.4195023 -2.8318739 0.12186143 37 8 1.681198e+09
nan nan nan 0 9 1.681198e+09
-6.453773 -2.8442912 -0.36901575 38 6 1.681198e+09
-4.2050571 -2.8393853 -0.087960124 32 7 1.681198e+09
-4.3515778 -1.9157135 -0.57866502 42 4 1.681198e+09
-2.8861928 -1.9471033 -0.30095726 9 5 1.681198e+09
-3.5704398 -1.5699496 -0.7499612 9 2 1.681198e+09
nan nan nan 0 3 1.681198e+09
-3.6386883 -1.5969063 -1.0546472 12 0 1.681198e+09
-2.6898561 -1.820338 -0.74065453 42 1 1.681198e+09
-46.203091 -20.206739 11.615754 14 14 1.681198e+09
-33.670048 -22.842133 10.877563 14 15 1.681198e+09
-14.5474 -6.3635364 2.5036786 14 12 1.681198e+09
-40.585869 -27.411177 9.504241 28 13 1.681198e+09
-65.075607 -28.446238 6.2105002 7 10 1.681198e+09
-27.119862 -18.25263 4.0038018 14 11 1.681198e+09
-6.4614186 -2.8234525 0.12247226 16 8 1.681198e+09
nan nan nan 0 9 1.681198e+09
-6.4773917 -2.8277361 -0.36980343 7 6 1.681198e+09
-4.2896504 -2.8748531 -0.089530841 28 7 1.681198e+09
-4.3809872 -1.9104223 -0.58170736 36 4 1.681198e+09
-2.8867686 -1.9328514 -0.30030489 9 5 1.681198e+09
-3.6324368 -1.5813185 -0.76186532 9 2 1.681198e+09
nan nan nan 0 3 1.681198e+09
-3.668607 -1.594775 -1.0617601 10 0 1.681198e+09
-2.6921535 -1.8082153 -0.73953146 42 1 1.681198e+09
-46.391823 -20.096657 11.645514 14 14 1.681198e+09
-33.659435 -22.663752 10.848483 14 15 1.681198e+09
-14.569525 -6.3127174 2.5036786 12 12 1.681198e+09
-41.404945 -27.754505 9.6734314 28 13 1.681198e+09
nan nan nan 0 10 1.681198e+09
-27.047241 -18.066868 3.9837222 34 11 1.681198e+09
-6.5033531 -2.8147733 0.12308308 3 8 1.681198e+09
nan nan nan 0 9 1.681198e+09
-6.5353494 -2.8259044 -0.3725602 30 6 1.681198e+09
-4.3162999 -2.8709509 -0.089879893 28 7 1.681198e+09
-4.4172478 -1.9078985 -0.58566254 39 4 1.681198e+09
-2.8789909 -1.9130952 -0.29878271 8 5 1.681198e+09
-3.5838363 -1.5453309 -0.75043732 10 2 1.681198e+09
nan nan nan 0 3 1.681198e+09
-3.6918991 -1.5895917 -1.0669332 8 0 1.681198e+09
-2.6923735 -1.7947445 -0.73784685 44 1 1.681198e+09
-46.532082 -19.974417 11.664045 17 14 1.681198e+09
-33.674183 -22.511738 10.829098 14 15 1.681198e+09
-14.626685 -6.2799525 2.5099223 6 12 1.681198e+09
-42.023823 -27.967897 9.7963924 20 13 1.681198e+09
-14.560426 -6.2484961 1.3831617 1 10 1.681198e+09
-27.222799 -18.053894 4.0007596 14 11 1.681198e+09
-6.5333285 -2.8020539 0.12347577 43 8 1.681198e+09
nan nan nan 0 9 1.681198e+09
-6.5286198 -2.7973382 -0.37164128 12 6 1.681198e+09
-4.3054461 -2.8420777 -0.089443579 32 7 1.681198e+09
-4.448648 -1.903971 -0.58900911 39 4 1.681198e+09
-2.8752644 -1.8961645 -0.29769543 9 5 1.681198e+09
-3.5979702 -1.537291 -0.75234199 10 2 1.681198e+09
nan nan nan 0 3 1.681198e+09
-3.730752 -1.5908893 -1.0766325 13 0 1.681198e+09
-2.7006516 -1.7866822 -0.73840839 44 1 1.681198e+09
-46.63739 -19.827114 11.673029 17 14 1.681198e+09
-33.686153 -22.349985 10.807773 10 15 1.681198e+09
-66.819443 -28.406347 11.468299 1 12 1.681198e+09
-42.414009 -28.014479 9.8645458 20 13 1.681198e+09
-14.631369 -6.2155309 1.3877373 24 10 1.681198e+09
-27.273218 -17.950573 3.9989343 20 11 1.681198e+09
-6.5389533 -2.7761369 0.12338851 12 8 1.681198e+09
-27.341633 -17.954624 1.7124323 1 9 1.681198e+09
-6.5549183 -2.7802107 -0.3725602 4 6 1.681198e+09
-4.3801203 -2.8695517 -0.090796135 25 7 1.681198e+09
