# .PCD v0.7 - Point Cloud Data file format
VERSION 0.7
FIELDS x y z intensity ring timestamp
SIZE 4 4 4 4 2 8
TYPE F F F F U F
COUNT 1 1 1 1 1 1
WIDTH 980
HEIGHT 1
VIEWPOINT 0 0 0 1 0 0 0
POINTS 980
DATA ascii
-6.2600245 3.2832355 -1.3646913 3 2 1.681198e+09
-9.3347416 2.9104872 -1.5449265 7 3 1.681198e+09
-4.6146932 2.4238791 -1.3863664 3 0 1.681198e+09
-6.5700312 2.0424104 -1.5778917 8 1 1.681198e+09
-38.628841 20.338869 10.054708 47 14 1.681198e+09
-39.018909 12.10567 10.922151 25 15 1.681198e+09
-36.612137 19.276945 6.533134 7 12 1.681198e+09
nan nan nan 0 13 1.681198e+09
nan nan nan 0 10 1.681198e+09
-24.055586 7.5618219 3.08743 10 11 1.681198e+09
-6.6584187 3.5086474 0.13076214 3 8 1.681198e+09
-18.366602 5.7922368 1.0074672 54 9 1.681198e+09
-6.6998448 3.5334775 -0.39645237 2 6 1.681198e+09
-16.622019 5.25207 -0.30367187 44 7 1.681198e+09
-6.2429223 3.2965388 -0.86130416 3 4 1.681198e+09
-12.429848 3.926301 -1.1351134 4 5 1.681198e+09
-6.2159886 3.2878468 -1.3575488 3 2 1.681198e+09
-9.3433657 2.9489906 -1.5480587 7 3 1.681198e+09
-4.5912685 2.432055 -1.38184 8 0 1.681198e+09
-6.5771685 2.0685618 -1.5812609 9 1 1.681198e+09
-38.286518 20.329624 9.9839554 42 14 1.681198e+09
-38.928032 12.226607 10.908581 22 15 1.681198e+09
-36.306904 19.278389 6.4905996 4 12 1.681198e+09
-49.61692 15.696624 10.099506 14 13 1.681198e+09
nan nan nan 0 10 1.681198e+09
-23.96756 7.6261945 3.07952 17 11 1.681198e+09
-6.6637869 3.5412564 0.13111119 3 8 1.681198e+09
-18.393839 5.8714843 1.0100839 29 9 1.681198e+09
-6.6918769 3.5591884 -0.39671493 22 6 1.681198e+09
-16.648823 5.3245149 -0.30450085 43 7 1.681198e+09
-6.1766286 3.2891388 -0.85369819 7 4 1.681198e+09
-12.413 3.9710746 -1.1348959 8 5 1.681198e+09
-6.1741619 3.2933464 -1.3508824 4 2 1.681198e+09
-9.3330145 2.9815872 -1.5480587 7 3 1.681198e+09
-4.5657134 2.4389579 -1.376667 10 0 1.681198e+09
-6.5672212 2.0919166 -1.5806993 10 1 1.681198e+09
-37.981232 20.337788 9.9227486 34 14 1.681198e+09
-38.78614 12.330963 10.880794 25 15 1.681198e+09
-35.967281 19.259287 6.4418216 14 12 1.681198e+09
-53.004707 16.971798 10.80153 37 13 1.681198e+09
-37.416012 20.051931 3.7108736 72 10 1.681198e+09
-23.936071 7.7082906 3.0789113 10 11 1.681198e+09
-6.6661816 3.5739272 0.1314166 3 8 1.681198e+09
nan nan nan 0 9 1.681198e+09
-6.6941843 3.591958 -0.39763385 9 6 1.681198e+09
-16.64916 5.3887496 -0.30484986 40 7 1.681198e+09
-6.1601605 3.3094053 -0.85308969 4 4 1.681198e+09
-10.967764 3.5515306 -1.0035533 7 5 1.681198e+09
-6.1864009 3.3276727 -1.3561202 4 2 1.681198e+09
-9.3366489 3.0186982 -1.5504078 7 3 1.681198e+09
-4.5189104 2.4342527 -1.3650277 9 0 1.681198e+09
-6.5784316 2.120795 -1.5851916 9 1 1.681198e+09
-37.683529 20.356434 9.8643503 31 14 1.681198e+09
nan nan nan 0 15 1.681198e+09
-35.737854 19.305302 6.4133348 7 12 1.681198e+09
-53.159256 17.236332 10.845853 75 13 1.681198e+09
-37.179279 20.092421 3.6943142 58 10 1.681198e+09
-23.656557 7.7095718 3.0463576 2 11 1.681198e+09
-6.6734529 3.6078782 0.13180929 3 8 1.681198e+09
nan nan nan 0 9 1.681198e+09
-6.6903877 3.6200576 -0.39815897 6 6 1.681198e+09
-16.61837 5.4429469 -0.30463174 40 7 1.681198e+09
-6.1682053 3.3415313 -0.85582787 4 4 1.681198e+09
-10.862985 3.5595853 -0.99507254 2 5 1.681198e+09
-6.2006311 3.3632948 -1.3618342 4 2 1.681198e+09
-9.3284025 3.0520377 -1.5507994 7 3 1.681198e+09
-4.4997773 2.4442446 -1.3617946 8 0 1.681198e+09
-6.5686727 2.1429911 -1.58463 10 1 1.681198e+09
-37.38689 20.356627 9.804266 28 14 1.681198e+09
nan nan nan 0 15 1.681198e+09
-35.422073 19.286722 6.3680692 7 12 1.681198e+09
-53.062164 17.399525 10.83775 22 13 1.681198e+09
-36.861805 20.087402 3.6696925 43 10 1.681198e+09
-56.927834 18.765802 7.3449683 1 11 1.681198e+09
-6.6768141 3.6383641 0.13211471 3 8 1.681198e+09
nan nan nan 0 9 1.681198e+09
-6.6936865 3.6505947 -0.39907789 2 6 1.681198e+09
-29.00494 9.6085091 -0.53273469 75 7 1.681198e+09
nan nan nan 0 4 1.681198e+09
-16.421722 5.4389672 -1.5073959 23 5 1.681198e+09
-6.2060776 3.3943448 -1.3656436 2 2 1.681198e+09
-9.3223791 3.0861306 -1.5515823 8 3 1.681198e+09
-4.4679236 2.4471676 -1.3546816 7 0 1.681198e+09
-6.5592155 2.1640003 -1.5840685 10 1 1.681198e+09
-37.102062 20.369759 9.7481136 1 14 1.681198e+09
nan nan nan 0 15 1.681198e+09
-35.062317 19.249802 6.3153887 1 12 1.681198e+09
-52.036747 17.264774 10.640441 10 13 1.681198e+09
-36.522137 20.059652 3.6424563 20 10 1.681198e+09
-56.285248 18.7721 7.2704296 1 11 1.681198e+09
-6.6837873 3.6724863 0.13250738 2 8 1.681198e+09
-58.695896 19.632803 3.2418199 1 9 1.681198e+09
-6.6918392 3.679955 -0.39973426 2 6 1.681198e+09
-29.020323 9.7205114 -0.5336073 42 7 1.681198e+09
-4.6760721 2.574044 -0.65016145 14 4 1.681198e+09
-16.471125 5.5191865 -1.513702 14 5 1.681198e+09
-4.5804405 2.5255165 -1.0080431 2 2 1.681198e+09
-9.3068676 3.1170874 -1.5507994 7 3 1.681198e+09
-4.4428735 2.4526277 -1.3495086 2 0 1.681198e+09
-6.5562449 2.1884222 -1.5851916 9 1 1.681198e+09
-36.806953 20.375252 9.6891537 27 14 1.681198e+09
nan nan nan 0 15 1.681198e+09
-34.64925 19.18071 6.2529526 37 12 1.681198e+09
-52.476395 17.614174 10.742908 7 13 1.681198e+09
-36.249279 20.074797 3.6221926 20 10 1.681198e+09
-55.648026 18.775732 7.1964989 2 11 1.681198e+09
-6.6731138 3.6970065 0.13255101 2 8 1.681198e+09
-58.527683 19.803968 3.2363245 1 9 1.681198e+09
-6.6898694 3.7093472 -0.40039065 13 6 1.681198e+09
-13.545217 4.5922585 -0.24904582 4 7 1.681198e+09
-4.6518736 2.5819166 -0.64803177 27 4 1.681198e+09
-13.472454 4.5676289 -1.2390567 4 5 1.681198e+09
-4.5844646 2.5486491 -1.0109 3 2 1.681198e+09
-9.3052855 3.1527197 -1.5523653 7 3 1.681198e+09
-4.4110789 2.4551945 -1.3423959 1 0 1.681198e+09
-6.546257 2.2105169 -1.58463 9 1 1.681198e+09
-36.490978 20.367058 9.6245775 28 14 1.681198e+09
nan nan nan 0 15 1.681198e+09
-34.577778 19.299133 6.2521729 42 12 1.681198e+09
-52.512196 17.830376 10.762926 3 13 1.681198e+09
-35.974586 20.087069 3.6017113 73 10 1.681198e+09
-55.319118 18.880119 7.1624246 3 11 1.681198e+09
-6.6776237 3.7300332 0.13290006 2 8 1.681198e+09
-55.74649 19.080252 3.0861204 1 9 1.681198e+09
-6.692132 3.7412076 -0.40130958 8 6 1.681198e+09
-13.564575 4.6516633 -0.24970029 6 7 1.681198e+09
-4.6385026 2.5957139 -0.64742327 34 4 1.681198e+09
-13.133642 4.5040507 -1.2092655 2 5 1.681198e+09
-4.5862422 2.5706396 -1.0132809 3 2 1.681198e+09
-9.3012323 3.1875806 -1.55354 7 3 1.681198e+09
-4.3940597 2.4658465 -1.3398093 1 0 1.681198e+09
-6.5338893 2.2317824 -1.5835069 9 1 1.681198e+09
-36.203114 20.372442 9.5673018 31 14 1.681198e+09
-37.986813 12.958917 10.730228 10 15 1.681198e+09
-34.467159 19.395494 6.2443676 29 12 1.681198e+09
-47.382587 16.273787 9.7225208 4 13 1.681198e+09
-35.63298 20.059792 3.574475 37 10 1.681198e+09
-54.57967 18.840775 7.0751071 3 11 1.681198e+09
-6.6841621 3.7643638 0.13329275 2 8 1.681198e+09
-55.66539 19.269829 3.0853353 83 9 1.681198e+09
-6.6964288 3.7743554 -0.40235978 2 6 1.681198e+09
-13.552979 4.7006211 -0.24978755 7 7 1.681198e+09
-4.6164489 2.6045694 -0.64559782 49 4 1.681198e+09
-13.009588 4.512362 -1.1992625 1 5 1.681198e+09
-4.4789734 2.5310583 -0.99137723 2 2 1.681198e+09
-9.3017168 3.2240665 -1.5554975 7 3 1.681198e+09
-4.4400625 2.5121071 -1.3566216 2 0 1.681198e+09
-6.5398784 2.2593398 -1.5868762 9 1 1.681198e+09
-34.687546 19.687256 9.1854639 34 14 1.681198e+09
-38.002979 13.120118 10.748322 17 15 1.681198e+09
-34.498917 19.580204 6.2630987 32 12 1.681198e+09
-47.443169 16.489225 9.747303 4 13 1.681198e+09
-34.591156 19.640547 3.4770784 35 10 1.681198e+09
-54.16449 18.909342 7.0297756 7 11 1.681198e+09
-6.6811867 3.795012 0.1335109 2 8 1.681198e+09
-55.709843 19.514154 3.0917463 87 9 1.681198e+09
-6.6912308 3.8038108 -0.40288487 3 6 1.681198e+09
-13.542736 4.7527442 -0.24991845 29 7 1.681198e+09
-4.6133413 2.6251559 -0.64651054 35 4 1.681198e+09
-10.868318 3.8151414 -1.0026835 3 5 1.681198e+09
-4.41681 2.5162873 -0.97947311 2 2 1.681198e+09
-9.2904053 3.2565157 -1.5554975 7 3 1.681198e+09
-4.5314837 2.5858483 -1.3876597 10 0 1.681198e+09
-6.5292525 2.2824922 -1.5863147 9 1 1.681198e+09
-34.556511 19.764677 9.1680555 42 14 1.681198e+09
-38.116596 13.30095 10.79291 25 15 1.681198e+09
-34.598846 19.788906 6.2931457 43 12 1.681198e+09
-47.314129 16.620443 9.7320528 4 13 1.681198e+09
-34.660717 19.840363 3.4910233 47 10 1.681198e+09
-53.438286 18.865402 6.9439797 3 11 1.681198e+09
-17.32527 9.9202995 0.34787005 6 8 1.681198e+09
-55.670719 19.707951 3.0931857 32 9 1.681198e+09
-6.6937423 3.8346694 -0.40380383 10 6 1.681198e+09
-13.518995 4.797483 -0.24978755 1 7 1.681198e+09
-4.6132188 2.64538 -0.64772749 29 4 1.681198e+09
-10.872039 3.8569829 -1.0042057 2 5 1.681198e+09
-4.4250216 2.5414736 -0.98328239 3 2 1.681198e+09
-9.2882919 3.2922208 -1.5570637 8 3 1.681198e+09
-4.5308013 2.6064701 -1.3902462 9 0 1.681198e+09
-6.5216479 2.3041315 -1.5863147 9 1 1.681198e+09
-34.573841 19.935078 9.1910782 45 14 1.681198e+09
-38.065388 13.432316 10.791617 37 15 1.681198e+09
-34.600151 19.950264 6.3060231 45 12 1.681198e+09
-47.521778 16.87994 9.7868605 10 13 1.681198e+09
-34.681023 20.004972 3.4997387 53 10 1.681198e+09
-53.054264 18.938393 6.9026027 3 11 1.681198e+09
-17.299196 9.9857149 0.34804457 34 8 1.681198e+09
-55.549873 19.883652 3.0903072 87 9 1.681198e+09
-6.6932855 3.8655057 -0.40459147 6 6 1.681198e+09
-13.539815 4.8581386 -0.25048566 25 7 1.681198e+09
-4.6146965 2.66768 -0.64924872 20 4 1.681198e+09
-10.761705 3.86235 -0.99529004 3 5 1.681198e+09
-4.4182472 2.558135 -0.98375857 3 2 1.681198e+09
-9.2767429 3.3246229 -1.5570637 8 3 1.681198e+09
-4.5112324 2.6162088 -1.387013 8 0 1.681198e+09
-6.5177474 2.3296556 -1.5874376 9 1 1.681198e+09
-34.558804 20.087473 9.2056789 47 14 1.681198e+09
-37.997795 13.557804 10.785802 31 15 1.681198e+09
-34.555923 20.085814 6.3107061 42 12 1.681198e+09
-47.670452 17.120358 9.8297548 84 13 1.681198e+09
-34.648369 20.155745 3.5038788 29 10 1.681198e+09
-52.427647 18.921349 6.8295856 3 11 1.681198e+09
-17.016224 9.9056711 0.34307066 1 8 1.681198e+09
-54.87566 19.869574 3.0568123 34 9 1.681198e+09
-6.6941719 3.8988099 -0.4055104 6 6 1.681198e+09
-13.541574 4.9121847 -0.2508347 15 7 1.681198e+09
-4.6177473 2.6920784 -0.65107417 4 4 1.681198e+09
-10.659181 3.8676474 -0.98702675 6 5 1.681198e+09
-4.4368401 2.5896342 -0.98994869 3 2 1.681198e+09
-9.272047 3.3595045 -1.5582381 7 3 1.681198e+09
-4.4895663 2.6246228 -1.3831333 7 0 1.681198e+09
-6.5072846 2.3515663 -1.5868762 9 1 1.681198e+09
-34.594227 20.278069 9.2348776 31 14 1.681198e+09
-37.925133 13.688786 10.77934 25 15 1.681198e+09
-34.665279 20.319733 6.3442655 34 12 1.681198e+09
-47.658131 17.313393 9.8402395 59 13 1.681198e+09
-34.678776 20.335785 3.5141196 22 10 1.681198e+09
-51.890381 18.932476 6.7681289 1 11 1.681198e+09
-17.212208 10.100391 0.34773916 1 8 1.681198e+09
-54.386303 19.907429 3.033392 88 9 1.681198e+09
-6.6998963 3.9335337 -0.40669188 14 6 1.681198e+09
-13.547816 4.9680219 -0.25127101 12 7 1.681198e+09
nan nan nan 0 4 1.681198e+09
-10.659646 3.9099715 -0.9883315 9 5 1.681198e+09
-4.5927324 2.7022355 -1.0270897 8 2 1.681198e+09
-9.2602634 3.3918493 -1.5582381 7 3 1.681198e+09
-4.4928584 2.6476393 -1.387013 4 0 1.681198e+09
-6.5104804 2.3784389 -1.5896838 9 1 1.681198e+09
-34.44709 20.345594 9.2135401 20 14 1.681198e+09
-37.865917 13.809513 10.775462 25 15 1.681198e+09
-34.459503 20.35294 6.3189006 37 12 1.681198e+09
-48.319286 17.735104 9.9889364 10 13 1.681198e+09
-34.431774 20.352785 3.4962525 24 10 1.681198e+09
-51.332729 18.932358 6.7039342 4 11 1.681198e+09
-18.2092 10.766899 0.36863843 39 8 1.681198e+09
-52.591843 19.448753 2.936832 20 9 1.681198e+09
-6.6932602 3.9595444 -0.40708572 7 6 1.681198e+09
-13.544457 5.0204906 -0.25153279 7 7 1.681198e+09
nan nan nan 0 4 1.681198e+09
-10.651292 3.9470274 -0.98876637 10 5 1.681198e+09
-4.6085978 2.7332819 -1.0328037 6 2 1.681198e+09
-9.2553158 3.4267218 -1.5594127 7 3 1.681198e+09
-4.4856644 2.6645398 -1.3876597 3 0 1.681198e+09
-6.4979854 2.3983312 -1.5885607 9 1 1.681198e+09
-34.204216 20.363516 9.1674948 14 14 1.681198e+09
-37.767632 13.923233 10.761246 25 15 1.681198e+09
-34.11879 20.312664 6.2693429 24 12 1.681198e+09
-48.471073 17.98303 10.033259 10 13 1.681198e+09
-33.786381 20.122742 3.4374225 4 10 1.681198e+09
-50.843151 18.953711 6.6485624 3 11 1.681198e+09
-18.119976 10.799677 0.36759129 8 8 1.681198e+09
nan nan nan 0 9 1.681198e+09
-15.947869 9.5123882 -0.97459024 31 6 1.681198e+09
-13.552601 5.0773773 -0.25201273 7 7 1.681198e+09
-6.2471776 3.7294533 -0.88777304 2 4 1.681198e+09
-10.65075 3.9912784 -0.99007112 8 5 1.681198e+09
-4.6074533 2.7543921 -1.0347083 3 2 1.681198e+09
-9.2386723 3.4572794 -1.5586296 7 3 1.681198e+09
-4.5032659 2.6963181 -1.3960658 2 0 1.681198e+09
-6.500566 2.4263833 -1.5913684 9 1 1.681198e+09
-33.65876 20.198219 9.0400276 7 14 1.681198e+09
-37.702953 14.049081 10.756722 22 15 1.681198e+09
-33.791477 20.277882 6.2221251 25 12 1.681198e+09
-48.470051 18.175377 10.046128 17 13 1.681198e+09
-33.887474 20.351591 3.4552896 28 10 1.681198e+09
-22.869133 8.619072 2.992203 2 11 1.681198e+09
-30.930191 18.59008 0.6292901 1 8 1.681198e+09
-51.729687 19.551907 2.8964026 4 9 1.681198e+09
-15.951406 9.5939417 -0.97695321 24 6 1.681198e+09
-25.098274 9.4987411 -0.46781173 22 7 1.681198e+09
-6.2207131 3.7446442 -0.88594764 2 4 1.681198e+09
-10.634423 4.0275512 -0.98985368 3 5 1.681198e+09
-4.6188278 2.7831316 -1.03947 2 2 1.681198e+09
-9.2357855 3.4929967 -1.5601957 7 3 1.681198e+09
-4.6343942 2.796917 -1.4400363 7 0 1.681198e+09
-6.4897771 2.4482017 -1.5908068 9 1 1.681198e+09
-33.663712 20.369377 9.0613661 14 14 1.681198e+09
-37.644424 14.184619 10.754784 20 15 1.681198e+09
nan nan nan 0 12 1.681198e+09
-48.508675 18.392921 10.068051 17 13 1.681198e+09
-33.662827 20.37689 3.4396014 14 10 1.681198e+09
-22.837389 8.7028351 2.992203 2 11 1.681198e+09
-16.5158 10.004261 0.33643875 14 8 1.681198e+09
-51.721756 19.755514 2.8998044 10 9 1.681198e+09
-6.691287 4.0551724 -0.40957993 22 6 1.681198e+09
-25.041613 9.5773678 -0.4673754 38 7 1.681198e+09
-6.2415423 3.7869382 -0.8908155 3 4 1.681198e+09
-13.002481 4.9752669 -1.2125273 2 5 1.681198e+09
-4.587625 2.7872915 -1.0347083 3 2 1.681198e+09
-9.236762 3.5321095 -1.5625448 7 3 1.681198e+09
-4.6452308 2.8256338 -1.4465026 14 0 1.681198e+09
-6.4811921 2.47084 -1.5908068 9 1 1.681198e+09
-33.469692 20.411919 9.0282364 22 14 1.681198e+09
-37.574375 14.308205 10.748968 17 15 1.681198e+09
nan nan nan 0 12 1.681198e+09
-48.501465 18.584084 10.079967 17 13 1.681198e+09
-16.294491 9.9402819 1.6668537 6 10 1.681198e+09
-22.880978 8.8110189 3.0019386 2 11 1.681198e+09
-16.497843 10.072269 0.33678779 8 8 1.681198e+09
-51.685093 19.948517 2.9016361 58 9 1.681198e+09
-15.794569 9.6503916 -0.97143966 34 6 1.681198e+09
-13.535996 5.2334299 -0.25271082 15 7 1.681198e+09
-6.2113523 3.7983415 -0.88838154 2 4 1.681198e+09
-12.906045 4.9901123 -1.2051338 3 5 1.681198e+09
-6.2289128 3.8150496 -1.4104031 6 2 1.681198e+09
-9.2289848 3.566108 -1.5633279 7 3 1.681198e+09
-4.6456313 2.8481457 -1.4497358 31 0 1.681198e+09
-6.4748011 2.4943228 -1.5913684 9 1 1.681198e+09
-33.234287 20.427839 8.9838753 35 14 1.681198e+09
-37.483627 14.423672 10.737337 7 15 1.681198e+09
nan nan nan 0 12 1.681198e+09
-48.443169 18.75593 10.081396 14 13 1.681198e+09
-33.10183 20.354399 3.3966773 4 10 1.681198e+09
-48.646942 18.912912 6.3951302 72 11 1.681198e+09
-16.475357 10.137659 0.33704957 39 8 1.681198e+09
-51.242981 19.983711 2.8807018 82 9 1.681198e+09
-15.784169 9.7198687 -0.9728837 44 6 1.681198e+09
-13.536274 5.2879181 -0.25305989 10 7 1.681198e+09
-6.1917195 3.8160932 -0.88746887 2 4 1.681198e+09
-12.378129 4.8359237 -1.1572937 3 5 1.681198e+09
-6.2099628 3.8318172 -1.4089746 6 2 1.681198e+09
-9.219408 3.597589 -1.5637194 7 3 1.681198e+09
-4.6418228 2.8681548 -1.4516755 38 0 1.681198e+09
-6.4660549 2.5169089 -1.5913684 9 1 1.681198e+09
-32.973747 20.41865 8.931653 42 14 1.681198e+09
-37.250996 14.476179 10.684347 7 15 1.681198e+09
nan nan nan 0 12 1.681198e+09
-48.51099 18.967398 10.108562 14 13 1.681198e+09
-16.303024 10.10234 1.6749154 3 10 1.681198e+09
-48.582939 19.083515 6.3954344 40 11 1.681198e+09
-16.401287 10.167211 0.33622059 52 8 1.681198e+09
-50.609612 19.930367 2.8487768 1 9 1.681198e+09
-6.7000871 4.1554503 -0.41273054 21 6 1.681198e+09
-13.554938 5.3498063 -0.25375798 7 7 1.681198e+09
-6.2064319 3.8536272 -0.89142394 3 4 1.681198e+09
-12.283243 4.8458953 -1.1499003 4 5 1.681198e+09
-4.4378204 2.7591841 -1.0070907 6 2 1.681198e+09
-9.2182817 3.6342716 -1.5656769 7 3 1.681198e+09
-4.6420307 2.8907266 -1.4549088 40 0 1.681198e+09
-6.4622087 2.5401163 -1.5924914 9 1 1.681198e+09
-32.722477 20.421408 8.8828011 7 14 1.681198e+09
-37.031628 14.539944 10.635882 7 15 1.681198e+09
nan nan nan 0 12 1.681198e+09
-48.535793 19.172676 10.127625 14 13 1.681198e+09
-32.632965 20.373474 3.3626866 1 10 1.681198e+09
-48.615211 19.292334 6.4085169 42 11 1.681198e+09
-16.361458 10.221751 0.33613333 46 8 1.681198e+09
-48.672291 19.364138 2.7434506 39 9 1.681198e+09
-6.7109423 4.1946974 -0.41430587 6 6 1.681198e+09
-13.557082 5.4054151 -0.25415066 7 7 1.681198e+09
-6.2034583 3.8818524 -0.89294511 3 4 1.681198e+09
-12.202931 4.8659983 -1.144029 4 5 1.681198e+09
-4.4073687 2.7616198 -1.002329 6 2 1.681198e+09
-9.2055397 3.6664276 -1.5656769 7 3 1.681198e+09
-4.648272 2.9171875 -1.4600818 32 0 1.681198e+09
-6.4505906 2.5628867 -1.5919298 9 1 1.681198e+09
-32.407665 20.382452 8.8165398 4 14 1.681198e+09
-36.904324 14.638855 10.613912 25 15 1.681198e+09
nan nan nan 0 12 1.681198e+09
-48.550629 19.374718 10.144783 1 13 1.681198e+09
-32.389458 20.386801 3.3452554 39 10 1.681198e+09
-48.549873 19.462835 6.4088211 42 11 1.681198e+09
-16.37887 10.316291 0.33726773 43 8 1.681198e+09
-48.677433 19.57313 2.7477684 40 9 1.681198e+09
-6.70397 4.2245917 -0.41483095 6 6 1.681198e+09
-13.552043 5.4583039 -0.25441244 9 7 1.681198e+09
-6.208075 3.9164832 -0.89568329 3 4 1.681198e+09
-11.950203 4.8137317 -1.1218487 4 5 1.681198e+09
-4.4122252 2.7861652 -1.0056622 2 2 1.681198e+09
-9.1972675 3.7003796 -1.56646 7 3 1.681198e+09
-4.6237774 2.9243548 -1.4555554 28 0 1.681198e+09
-6.4483891 2.5881054 -1.5936145 10 1 1.681198e+09
-32.238106 20.441082 8.7907104 34 14 1.681198e+09
-37.20237 14.91507 10.715365 1 15 1.681198e+09
-31.893394 20.222506 5.9622359 25 12 1.681198e+09
-48.538467 19.576397 10.157174 14 13 1.681198e+09
-32.128822 20.379667 3.3256452 29 10 1.681198e+09
-48.410339 19.603323 6.3993897 22 11 1.681198e+09
-16.372303 10.392156 0.33787856 6 8 1.681198e+09
-24.533579 9.9669867 1.3859869 16 9 1.681198e+09
-6.7018261 4.2560005 -0.41561863 22 6 1.681198e+09
-13.553749 5.5140471 -0.25480512 14 7 1.681198e+09
-6.1818032 3.9301391 -0.8938579 6 4 1.681198e+09
-11.105037 4.5187454 -1.0437825 3 5 1.681198e+09
-4.3962626 2.7975948 -1.0042337 2 2 1.681198e+09
-9.1888695 3.7343185 -1.567243 7 3 1.681198e+09
-4.6339016 2.9534628 -1.4620216 15 0 1.681198e+09
-6.4438324 2.6124263 -1.5947375 9 1 1.681198e+09
-32.038754 20.463943 8.7547722 37 14 1.681198e+09
-37.085541 15.011179 10.695979 20 15 1.681198e+09
-31.582682 20.172626 5.9165797 43 12 1.681198e+09
-48.48465 19.741873 10.159557 14 13 1.681198e+09
-31.658804 20.236824 3.2842462 38 10 1.681198e+09
-22.833162 9.3416004 3.0204973 4 11 1.681198e+09
-31.158443 19.924622 0.64495361 1 8 1.681198e+09
-48.769455 19.996809 2.7605906 17 9 1.681198e+09
-6.7044983 4.2889676 -0.41666883 6 6 1.681198e+09
-13.550605 5.5679698 -0.25511053 12 7 1.681198e+09
-6.1729155 3.9532945 -0.8944664 3 4 1.681198e+09
-11.02778 4.5300193 -1.0379112 3 5 1.681198e+09
-4.3906012 2.8155744 -1.005186 2 2 1.681198e+09
-9.1872025 3.7710533 -1.5692006 8 3 1.681198e+09
-4.6723199 3.0009575 -1.4775407 9 0 1.681198e+09
-6.4396443 2.635623 -1.5958606 10 1 1.681198e+09
-31.778667 20.454344 8.7031116 1 14 1.681198e+09
-34.493351 14.102612 9.9618912 4 15 1.681198e+09
-31.561905 20.314823 5.9259453 22 12 1.681198e+09
-48.86713 20.09671 10.254399 45 13 1.681198e+09
-31.620836 20.360573 3.2872968 7 10 1.681198e+09
-22.832525 9.4345074 3.0247567 4 11 1.681198e+09
-31.4669 20.276995 0.65280724 1 8 1.681198e+09
-48.254166 19.982611 2.7353387 28 9 1.681198e+09
-6.6978779 4.3177567 -0.41719392 2 6 1.681198e+09
-13.561104 5.6276827 -0.25567773 6 7 1.681198e+09
-6.3321018 4.0865378 -0.91971833 2 4 1.681198e+09
-10.907575 4.527483 -1.0281256 7 5 1.681198e+09
-6.4106898 4.1436105 -1.4742093 1 2 1.681198e+09
-9.1694202 3.8012106 -1.5684175 8 3 1.681198e+09
nan nan nan 0 0 1.681198e+09
-6.4231858 2.6564193 -1.5941761 9 1 1.681198e+09
-31.539486 20.456438 8.6570663 36 14 1.681198e+09
-34.446144 14.223852 9.9625368 20 15 1.681198e+09
nan nan nan 0 12 1.681198e+09
-41.668476 17.307274 8.7555113 24 13 1.681198e+09
nan nan nan 0 10 1.681198e+09
-22.817776 9.5217915 3.0271907 6 11 1.681198e+09
-31.415428 20.407169 0.65328717 1 8 1.681198e+09
-47.851242 20.021564 2.7166286 22 9 1.681198e+09
-6.7008452 4.3545241 -0.4183754 10 6 1.681198e+09
-13.545988 5.6769166 -0.25576499 7 7 1.681198e+09
-6.26509 4.0758772 -0.9121123 2 4 1.681198e+09
-10.797516 4.5260911 -1.0192101 4 5 1.681198e+09
-6.2810407 4.0909276 -1.4475441 3 2 1.681198e+09
-9.1629314 3.8360524 -1.5695922 7 3 1.681198e+09
-4.4308214 2.8896384 -1.4070585 2 0 1.681198e+09
-6.4228683 2.6825733 -1.5964222 10 1 1.681198e+09
-31.313414 20.47324 8.6155128 25 14 1.681198e+09
-34.458416 14.376966 9.9812765 17 15 1.681198e+09
-29.632128 19.37389 5.5891814 3 12 1.681198e+09
-41.584393 17.451334 8.7512217 90 13 1.681198e+09
nan nan nan 0 10 1.681198e+09
-22.8713 9.6379833 3.0387516 8 11 1.681198e+09
-31.088858 20.34968 0.64796418 4 8 1.681198e+09
-47.442993 20.045666 2.6973951 45 9 1.681198e+09
-6.7106643 4.3943057 -0.41995072 7 6 1.681198e+09
-13.537601 5.7290335 -0.25598314 9 7 1.681198e+09
-6.2342243 4.0868344 -0.9096784 2 4 1.681198e+09
-10.77477 4.5608444 -1.0185577 8 5 1.681198e+09
-6.2195377 4.0818458 -1.4365923 3 2 1.681198e+09
-9.1540337 3.8699346 -1.5703752 7 3 1.681198e+09
-4.4227247 2.906414 -1.4077051 3 0 1.681198e+09
-6.4089746 2.7030869 -1.5952991 10 1 1.681198e+09
-31.092766 20.476467 8.5733986 25 14 1.681198e+09
-34.47065 14.516455 9.998724 7 15 1.681198e+09
-29.43161 19.382401 5.5634265 7 12 1.681198e+09
-41.5037 17.579571 8.7464552 7 13 1.681198e+09
-30.614183 20.176607 3.2047167 20 10 1.681198e+09
-23.06358 9.8139048 3.0688715 9 11 1.681198e+09
-30.722794 20.255896 0.64172494 17 8 1.681198e+09
-47.020294 20.051126 2.677115 14 9 1.681198e+09
-6.7043896 4.4220343 -0.42047581 7 6 1.681198e+09
-13.542808 5.7870493 -0.25646311 19 7 1.681198e+09
-6.1854405 4.0842338 -0.90450633 4 4 1.681198e+09
-10.750424 4.5926399 -1.0176879 10 5 1.681198e+09
-6.1909242 4.0940514 -1.433259 4 2 1.681198e+09
-9.1404696 3.9018645 -1.5703752 8 3 1.681198e+09
-4.4125524 2.9218347 -1.4077051 4 0 1.681198e+09
-6.40446 2.7262301 -1.5964222 12 1 1.681198e+09
-30.856684 20.475763 8.527915 31 14 1.681198e+09
-34.466442 14.656534 10.012295 10 15 1.681198e+09
-29.201235 19.377148 5.532599 24 12 1.681198e+09
-47.105999 20.146048 9.9427071 44 13 1.681198e+09
-30.663298 20.355156 3.2169185 87 10 1.681198e+09
-22.92886 9.8512707 3.055485 8 11 1.681198e+09
-30.487423 20.253736 0.63827807 1 8 1.681198e+09
-30.758142 13.245163 1.7532545 73 9 1.681198e+09
-6.709703 4.4592338 -0.4217886 25 6 1.681198e+09
-13.568433 5.8540778 -0.25733572 7 7 1.681198e+09
-6.2165895 4.1360497 -0.91119957 4 4 1.681198e+09
-10.742667 4.6359549 -1.0185577 10 5 1.681198e+09
-6.1725111 4.1129146 -1.4323068 6 2 1.681198e+09
-9.1472044 3.9425335 -1.5738989 7 3 1.681198e+09
-4.4103603 2.9425836 -1.4102916 10 0 1.681198e+09
-6.3944244 2.7496855 -1.5964222 12 1 1.681198e+09
-30.608841 20.465542 8.4790621 37 14 1.681198e+09
-34.483868 14.806283 10.032328 14 15 1.681198e+09
-29.063625 19.432295 5.5193315 36 12 1.681198e+09
-46.652348 20.144997 9.8616858 24 13 1.681198e+09
-30.545017 20.438314 3.2123427 71 10 1.681198e+09
-22.844246 9.9095316 3.0487916 6 11 1.681198e+09
-18.258953 12.225855 0.38294941 12 8 1.681198e+09
-45.721691 19.885344 2.6111715 35 9 1.681198e+09
-6.6891661 4.4810157 -0.42152604 38 6 1.681198e+09
-13.56396 5.9083877 -0.25764114 3 7 1.681198e+09
-6.4136281 4.3012104 -0.94253635 1 4 1.681198e+09
-10.744688 4.6813765 -1.0202973 3 5 1.681198e+09
-6.1968246 4.1604362 -1.4413539 6 2 1.681198e+09
-4.7401934 2.0651355 -0.81435561 8 3 1.681198e+09
-4.4120836 2.966048 -1.4141712 24 0 1.681198e+09
-6.3892579 2.7739265 -1.5975451 10 1 1.681198e+09
-30.392218 20.482279 8.4397554 25 14 1.681198e+09
-34.482544 14.955628 10.047835 17 15 1.681198e+09
-28.889824 19.469681 5.4998202 72 12 1.681198e+09
-46.22052 20.15988 9.7859077 35 13 1.681198e+09
-30.331009 20.448746 3.1973083 59 10 1.681198e+09
-22.819138 9.9981699 3.0503128 4 11 1.681198e+09
-18.20166 12.27973 0.382644 7 8 1.681198e+09
-45.656578 20.046827 2.6114333 25 9 1.681198e+09
-6.6838288 4.5113244 -0.42218241 6 6 1.681198e+09
-6.6847472 2.9421694 -0.12687899 1 7 1.681198e+09
-4.441515 3.0005343 -0.65289956 10 4 1.681198e+09
-6.6787696 2.9395561 -0.63409781 1 5 1.681198e+09
-6.1977925 4.194128 -1.4451632 4 2 1.681198e+09
-4.712244 2.0735631 -0.81083196 25 3 1.681198e+09
-4.4017034 2.981431 -1.4141712 19 0 1.681198e+09
-6.3862314 2.7991416 -1.5992298 12 1 1.681198e+09
-30.116982 20.450014 8.3830404 3 14 1.681198e+09
-34.496506 15.104956 10.067222 20 15 1.681198e+09
-28.707281 19.492716 5.4779673 42 12 1.681198e+09
-45.842144 20.185633 9.7206144 25 13 1.681198e+09
-30.07198 20.427143 3.1774807 73 10 1.681198e+09
-22.81814 10.092813 3.0548763 4 11 1.681198e+09
-6.6385074 4.5111451 0.13948835 8 8 1.681198e+09
-53.492905 23.709795 3.0646627 1 9 1.681198e+09
-6.6308866 4.5093484 -0.41981944 1 6 1.681198e+09
-6.6333079 2.9472427 -0.12609363 3 7 1.681198e+09
-4.4371672 3.0202107 -0.65381235 14 4 1.681198e+09
-6.6320415 2.9466944 -0.63061857 2 5 1.681198e+09
-6.1993341 4.2268009 -1.4489726 4 2 1.681198e+09
-4.6575713 2.0689921 -0.8026101 22 3 1.681198e+09
-4.3912692 2.996778 -1.4141712 22 0 1.681198e+09
-6.3764224 2.8214169 -1.5992298 12 1 1.681198e+09
-29.918304 20.460382 8.3465424 17 14 1.681198e+09
-34.492619 15.239758 10.080792 17 15 1.681198e+09
-28.61599 19.569685 5.4728947 39 12 1.681198e+09
-45.39143 20.167183 9.6391172 20 13 1.681198e+09
-29.827307 20.405809 3.1587422 42 10 1.681198e+09
-22.820807 10.184599 3.0597444 6 11 1.681198e+09
-6.6606359 4.5585542 0.14027371 2 8 1.681198e+09
-44.725925 20.002514 2.565901 38 9 1.681198e+09
-6.67974 4.5750604 -0.42388901 1 6 1.681198e+09
-6.6822958 2.9969375 -0.12722804 7 7 1.681198e+09
-4.4066644 3.0208712 -0.65076989 10 4 1.681198e+09
-6.6921806 3.0013771 -0.63735962 12 5 1.681198e+09
-6.1913524 4.2515044 -1.4504011 4 2 1.681198e+09
-4.6191268 2.0703156 -0.79712886 22 3 1.681198e+09
-4.4066458 3.0298834 -1.4225775 12 0 1.681198e+09
-6.3709846 2.8456416 -1.6003529 12 1 1.681198e+09
-29.726341 20.481754 8.31285 43 14 1.681198e+09
-34.505383 15.389571 10.100179 17 15 1.681198e+09
-28.45397 19.605001 5.4549441 29 12 1.681198e+09
-44.996052 20.179918 9.5700111 1 13 1.681198e+09
-29.629301 20.430164 3.1456685 34 10 1.681198e+09
-22.791904 10.267253 3.060657 6 11 1.681198e+09
-17.810801 12.289351 0.37710285 1 8 1.681198e+09
-44.579498 20.133432 2.5617142 89 9 1.681198e+09
-6.6711431 4.6051865 -0.42441407 7 6 1.681198e+09
-6.6649599 3.0171566 -0.12709714 38 7 1.681198e+09
-4.3935223 3.0355909 -0.65046567 4 4 1.681198e+09
-6.6544294 3.0124106 -0.63475019 21 5 1.681198e+09
-6.2027078 4.2912493 -1.4565912 4 2 1.681198e+09
-4.5826144 2.0732229 -0.79203916 20 3 1.681198e+09
-4.4555831 3.0865214 -1.4419762 13 0 1.681198e+09
-6.3721199 2.8728619 -1.6031604 12 1 1.681198e+09
-29.537022 20.511358 8.2808437 27 14 1.681198e+09
-34.503799 15.540724 10.116334 20 15 1.681198e+09
nan nan nan 0 12 1.681198e+09
-44.602085 20.199949 9.5018578 17 13 1.681198e+09
-29.398272 20.422625 3.1286733 34 10 1.681198e+09
-22.814663 10.373443 3.0685673 4 11 1.681198e+09
-18.188515 12.643967 0.38604718 12 8 1.681198e+09
-44.111385 20.10774 2.5388172 20 9 1.681198e+09
-6.696013 4.6569629 -0.42703959 23 6 1.681198e+09
-6.6794033 3.0518138 -0.12757708 8 7 1.681198e+09
-6.3864517 4.446528 -0.9498381 1 4 1.681198e+09
-6.6823936 3.0531914 -0.63844693 8 5 1.681198e+09
-6.189703 4.3142781 -1.4570674 4 2 1.681198e+09
-4.5483861 2.0769238 -0.78734088 23 3 1.681198e+09
-4.345788 3.0329189 -1.409645 6 0 1.681198e+09
-6.3553987 2.8920646 -1.6014758 10 1 1.681198e+09
-29.313129 20.500288 8.2370443 27 14 1.681198e+09
-34.509239 15.681026 10.133135 22 15 1.681198e+09
-27.717447 19.384239 5.3394384 40 12 1.681198e+09
-44.162064 20.177458 9.422266 17 13 1.681198e+09
-29.061558 20.339464 3.1003475 42 10 1.681198e+09
-22.789589 10.45819 3.0700884 6 11 1.681198e+09
-18.183344 12.73002 0.38683257 1 8 1.681198e+09
-43.692867 20.092268 2.5185368 35 9 1.681198e+09
-6.6907558 4.686305 -0.42769596 7 6 1.681198e+09
-6.6800628 3.0803375 -0.12779523 4 7 1.681198e+09
-6.3269806 4.4363303 -0.94314486 2 4 1.681198e+09
-6.66997 3.0742934 -0.63822943 8 5 1.681198e+09
-6.206737 4.3584313 -1.464686 4 2 1.681198e+09
-4.5029697 2.0752544 -0.78068513 16 3 1.681198e+09
-3.7821622 2.6589737 -1.2285897 4 0 1.681198e+09
-6.3524179 2.9161685 -1.6031604 12 1 1.681198e+09
-29.098011 20.501453 8.1966143 36 14 1.681198e+09
-34.517956 15.830578 10.151875 20 15 1.681198e+09
-28.983889 20.421053 5.5973763 1 12 1.681198e+09
-43.786026 20.190727 9.3569736 20 13 1.681198e+09
-28.941025 20.398417 3.0946825 22 10 1.681198e+09
-22.784472 10.552271 3.0743477 7 11 1.681198e+09
-19.160069 13.513844 0.40864807 12 8 1.681198e+09
-43.411854 20.146944 2.5063689 1 9 1.681198e+09
-6.7110686 4.735548 -0.43005893 6 6 1.681198e+09
-6.6964731 3.1162753 -0.12831882 6 7 1.681198e+09
-6.3398261 4.4784389 -0.94740415 3 4 1.681198e+09
-6.6699505 3.1039662 -0.63931674 19 5 1.681198e+09
-6.1954913 4.382906 -1.4656384 3 2 1.681198e+09
-4.468821 2.0784898 -0.77598697 15 3 1.681198e+09
-3.7413352 2.6498156 -1.2182436 8 0 1.681198e+09
-6.3416867 2.9394319 -1.6031604 10 1 1.681198e+09
-28.863379 20.487267 8.150569 35 14 1.681198e+09
-34.510708 15.973282 10.166091 20 15 1.681198e+09
-28.743288 20.402031 5.5645971 1 12 1.681198e+09
-43.361477 20.178843 9.2811937 14 13 1.681198e+09
-27.830605 19.768761 2.9835589 24 10 1.681198e+09
-22.765486 10.640141 3.0767817 8 11 1.681198e+09
-19.14097 13.605704 0.40930253 10 8 1.681198e+09
-41.660191 19.520109 2.4092858 31 9 1.681198e+09
-6.7079072 4.7702451 -0.43097785 9 6 1.681198e+09
-6.683291 3.1385703 -0.12827519 6 7 1.681198e+09
-6.2344375 4.4383044 -0.9340176 2 4 1.681198e+09
-6.6816249 3.1378026 -0.64149129 8 5 1.681198e+09
-6.2401032 4.4472508 -1.4799234 4 2 1.681198e+09
-4.4279962 2.0783708 -0.77011418 12 3 1.681198e+09
-3.6554158 2.6081271 -1.1930251 9 0 1.681198e+09
-6.3402176 2.9656737 -1.6054066 10 1 1.681198e+09
-27.710264 19.821835 7.8450975 27 14 1.681198e+09
-34.495693 16.120108 10.179015 14 15 1.681198e+09
-27.700298 19.81472 5.3765097 42 12 1.681198e+09
-41.610146 19.549891 8.9213657 25 13 1.681198e+09
-27.64599 19.783173 2.9711394 44 10 1.681198e+09
-22.782072 10.744938 3.0840836 10 11 1.681198e+09
-19.377869 13.876199 0.41541088 7 8 1.681198e+09
-41.693371 19.713421 2.4151735 38 9 1.681198e+09
-6.7033901 4.8023567 -0.43176553 3 6 1.681198e+09
-6.6813321 3.1661561 -0.12844969 10 7 1.681198e+09
-6.2249556 4.4643798 -0.93493032 2 4 1.681198e+09
-6.6751337 3.1632369 -0.64192617 6 5 1.681198e+09
-6.268394 4.5005054 -1.490399 6 2 1.681198e+09
-4.4117842 2.0895956 -0.76854807 10 3 1.681198e+09
-3.6286459 2.6081784 -1.1872054 9 0 1.681198e+09
-6.3320303 2.9888253 -1.605968 10 1 1.681198e+09
-27.565317 19.856657 7.8226371 50 14 1.681198e+09
-34.50322 16.263235 10.197109 17 15 1.681198e+09
-27.576334 19.864609 5.3651924 39 12 1.681198e+09
-41.578354 19.703526 8.9285145 89 13 1.681198e+09
-27.639393 19.924704 2.9778938 42 10 1.681198e+09
-41.634449 19.810205 5.648829 22 11 1.681198e+09
-19.425005 14.00764 0.41741791 3 8 1.681198e+09
-41.704388 19.888102 2.4196219 39 9 1.681198e+09
-6.7157683 4.845015 -0.43360338 23 6 1.681198e+09
-6.6747513 3.191613 -0.12853697 10 7 1.681198e+09
-6.2262077 4.496624 -0.93736422 2 4 1.681198e+09
-6.6803417 3.1928632 -0.64344841 7 5 1.681198e+09
-6.4216499 4.6446524 -1.5308731 6 2 1.681198e+09
-4.3933196 2.0996695 -0.76659054 9 3 1.681198e+09
-3.6214752 2.6222463 -1.1878521 9 0 1.681198e+09
-6.322084 3.0098066 -1.605968 10 1 1.681198e+09
-27.572727 20.008562 7.8445363 64 14 1.681198e+09
-34.522572 16.419868 10.219727 20 15 1.681198e+09
-27.56678 20.004261 5.3768992 35 12 1.681198e+09
-41.606743 19.895115 8.9494848 89 13 1.681198e+09
-27.663858 20.082092 2.9876988 39 10 1.681198e+09
-41.629925 19.986555 5.6576519 20 11 1.681198e+09
nan nan nan 0 8 1.681198e+09
-41.888939 20.155855 2.434407 42 9 1.681198e+09
-6.7109318 4.8772368 -0.43439105 4 6 1.681198e+09
-6.6776438 3.2202358 -0.12879875 9 7 1.681198e+09
-6.2044549 4.5139489 -0.93645149 3 4 1.681198e+09
-6.6781316 3.220484 -0.64431816 7 5 1.681198e+09
-6.5224099 4.7523346 -1.5589668 7 2 1.681198e+09
-4.4037642 2.1235557 -0.7697227 8 3 1.681198e+09
-3.6498234 2.6612885 -1.2001381 12 0 1.681198e+09
-6.3159328 3.0339634 -1.6070911 10 1 1.681198e+09
-27.585316 20.165073 7.8681202 68 14 1.681198e+09
-34.480289 16.547588 10.22425 20 15 1.681198e+09
-27.431002 20.052273 5.3640218 34 12 1.681198e+09
-41.565777 20.054087 8.9556799 45 13 1.681198e+09
-27.623743 20.200588 2.9909673 36 10 1.681198e+09
-22.784435 11.039157 3.0999041 6 11 1.681198e+09
nan nan nan 0 8 1.681198e+09
-41.508377 20.151518 2.4163508 4 9 1.681198e+09
-6.7140069 4.9153843 -0.43570378 17 6 1.681198e+09
-6.6821008 3.2511711 -0.12910417 4 7 1.681198e+09
-6.2246809 4.5619907 -0.94192785 2 4 1.681198e+09
-6.6825304 3.2513933 -0.64584035 10 5 1.681198e+09
-6.6541457 4.8840179 -1.5946792 8 2 1.681198e+09
-4.3985462 2.139993 -0.77011418 8 3 1.681198e+09
-3.6424577 2.6754429 -1.2007847 15 0 1.681198e+09
-6.2987251 3.0528085 -1.6054066 10 1 1.681198e+09
-27.501028 20.251129 7.8641901 45 14 1.681198e+09
-34.485355 16.69836 10.24299 17 15 1.681198e+09
-27.16996 20.007328 5.326561 35 12 1.681198e+09
-41.574963 20.237719 8.9728374 1 13 1.681198e+09
-27.561083 20.302797 2.9918387 29 10 1.681198e+09
-22.792585 11.1415 3.1062932 3 11 1.681198e+09
nan nan nan 0 8 1.681198e+09
-41.161999 20.161238 2.4002576 3 9 1.681198e+09
-6.7209148 4.9565768 -0.43727908 6 6 1.681198e+09
-6.6903386 3.2855444 -0.12949684 6 7 1.681198e+09
-6.2127104 4.5866394 -0.94253635 3 4 1.681198e+09
-6.6862211 3.2835393 -0.64736253 14 5 1.681198e+09
-6.710062 4.9612164 -1.6122975 8 2 1.681198e+09
-4.395484 2.1575053 -0.77089721 7 3 1.681198e+09
-3.6209841 2.6801505 -1.196905 13 0 1.681198e+09
-6.2940602 3.0790811 -1.6070911 10 1 1.681198e+09
-27.524082 20.416672 7.8911433 34 14 1.681198e+09
-34.509319 16.85891 10.267546 20 15 1.681198e+09
-27.119787 20.116758 5.3304625 34 12 1.681198e+09
-40.924694 20.098259 8.8474941 3 13 1.681198e+09
-27.396498 20.336874 2.9820337 24 10 1.681198e+09
-40.979877 20.205265 5.5977163 14 11 1.681198e+09
-18.304068 13.596621 0.39739126 1 8 1.681198e+09
-40.79015 20.164848 2.3828559 10 9 1.681198e+09
-6.7147241 4.9901147 -0.43806675 12 6 1.681198e+09
-6.6810694 3.3099864 -0.12954047 6 7 1.681198e+09
-6.2097921 4.6197505 -0.94466603 3 4 1.681198e+09
-6.6881137 3.3134844 -0.64866728 7 5 1.681198e+09
-6.3837276 4.7543893 -1.5375395 4 2 1.681198e+09
-4.3834991 2.1706481 -0.77011418 8 3 1.681198e+09
-3.5748327 2.6653333 -1.1846191 3 0 1.681198e+09
-6.2876449 3.1031861 -1.6082141 10 1 1.681198e+09
-27.427605 20.501371 7.8849664 25 14 1.681198e+09
-34.516613 17.019447 10.288223 29 15 1.681198e+09
-27.328699 20.427448 5.3862653 34 12 1.681198e+09
-40.879341 20.262283 8.8536892 37 13 1.681198e+09
-27.191717 20.332451 2.9674354 29 10 1.681198e+09
-40.664696 20.226654 5.5642505 22 11 1.681198e+09
-18.062372 13.515158 0.39315906 1 8 1.681198e+09
-19.54534 9.7500563 1.1428864 13 9 1.681198e+09
-6.7152491 5.0269918 -0.43924823 4 6 1.681198e+09
-6.6873679 3.3422163 -0.12988952 9 7 1.681198e+09
-6.2075257 4.6518183 -0.9467957 3 4 1.681198e+09
-6.6876488 3.3423703 -0.64975452 6 5 1.681198e+09
-6.2218394 4.6676245 -1.5023031 21 2 1.681198e+09
-4.3847346 2.1903412 -0.77168024 7 3 1.681198e+09
-3.519177 2.642972 -1.1691 3 0 1.681198e+09
-6.2811375 3.127284 -1.6093372 10 1 1.681198e+09
-27.260208 20.517494 7.856329 22 14 1.681198e+09
-34.518375 17.162838 10.305672 25 15 1.681198e+09
-27.237135 20.500141 5.3815827 29 12 1.681198e+09
-40.56385 20.273779 8.7998343 36 13 1.681198e+09
-27.009174 20.343327 2.9552331 25 10 1.681198e+09
-40.340992 20.241636 5.5295668 20 11 1.681198e+09
-18.326878 13.808146 0.39992186 1 8 1.681198e+09
-19.477211 9.796876 1.140793 30 9 1.681198e+09
-6.7105017 5.0582514 -0.44003591 6 6 1.681198e+09
-6.693522 3.3745306 -0.13023858 10 7 1.681198e+09
-6.2098894 4.685833 -0.94953382 3 4 1.681198e+09
-6.6943269 3.3734844 -0.6514942 6 5 1.681198e+09
-6.3542948 4.8017993 -1.5384916 9 2 1.681198e+09
-4.3704438 2.2023065 -0.77050573 8 3 1.681198e+09
-3.5060792 2.6523247 -1.1678067 6 0 1.681198e+09
-6.2685542 3.1470041 -1.6087757 10 1 1.681198e+09
-27.029242 20.491829 7.8102832 14 14 1.681198e+09
-34.529495 17.318947 10.326997 22 15 1.681198e+09
-27.037512 20.498116 5.3562174 36 12 1.681198e+09
-40.227665 20.281591 8.7421665 22 13 1.681198e+09
-26.889973 20.393654 2.9495683 20 10 1.681198e+09
-39.991112 20.241163 5.4912324 14 11 1.681198e+09
-18.260649 13.858435 0.39952919 1 8 1.681198e+09
-19.411722 9.8489962 1.1389612 38 9 1.681198e+09
-6.7106972 5.0952363 -0.44121739 7 6 1.681198e+09
-6.6861596 3.4001381 -0.13032584 7 7 1.681198e+09
-6.1934953 4.7074814 -0.94953382 6 4 1.681198e+09
-6.6885791 3.4013803 -0.65214658 8 5 1.681198e+09
-6.7260509 5.119844 -1.6332487 9 2 1.681198e+09
-4.3693366 2.2208989 -0.77168024 8 3 1.681198e+09
-3.479517 2.6513669 -1.1619871 4 0 1.681198e+09
-6.2700205 3.1765556 -1.6121448 10 1 1.681198e+09
-26.845253 20.500294 7.7777143 10 14 1.681198e+09
-34.522713 17.466625 10.343151 17 15 1.681198e+09
-26.857855 20.509933 5.3347549 28 12 1.681198e+09
-39.898483 20.290644 8.6859283 14 13 1.681198e+09
-26.727983 20.425529 2.939981 28 10 1.681198e+09
-39.657207 20.246395 5.4550281 20 11 1.681198e+09
-18.173996 13.897937 0.39874384 1 8 1.681198e+09
-19.279928 9.8711729 1.133335 45 9 1.681198e+09
-6.7078362 5.1319366 -0.44226757 2 6 1.681198e+09
-6.6942735 3.4337115 -0.13071851 3 7 1.681198e+09
-6.207715 4.7542973 -0.95440167 3 4 1.681198e+09
-6.6877489 3.4303834 -0.65323383 9 5 1.681198e+09
-6.7315059 5.1612153 -1.6389626 9 2 1.681198e+09
-4.3549623 2.232764 -0.77050573 8 3 1.681198e+09
-3.4549203 2.6517279 -1.1568141 6 0 1.681198e+09
-6.2654047 3.2017441 -1.6138295 10 1 1.681198e+09
-26.652168 20.507921 7.7434611 10 14 1.681198e+09
-34.488575 17.60841 10.352199 17 15 1.681198e+09
-26.690527 20.537457 5.3164144 29 12 1.681198e+09
-39.369663 20.203728 8.5867968 3 13 1.681198e+09
-26.551929 20.438185 2.9284329 20 10 1.681198e+09
-39.281834 20.227961 5.413043 1 11 1.681198e+09
-18.285767 14.084854 0.40227795 1 8 1.681198e+09
-19.254227 9.9429932 1.1338584 44 9 1.681198e+09
-6.2707171 4.83217 -0.41443714 37 6 1.681198e+09
-6.6911302 3.461647 -0.13089304 6 7 1.681198e+09
-6.7018299 5.1701188 -1.0335041 10 4 1.681198e+09
-6.6845846 3.4582794 -0.65410364 15 5 1.681198e+09
-6.7639441 5.2236938 -1.6513431 10 2 1.681198e+09
-4.3559198 2.2524805 -0.77207178 8 3 1.681198e+09
-3.4437325 2.6622934 -1.1561675 3 0 1.681198e+09
-6.2498579 3.2213652 -1.6127064 10 1 1.681198e+09
-26.439587 20.48428 7.7013469 17 14 1.681198e+09
-34.333363 17.672955 10.323119 14 15 1.681198e+09
-26.479782 20.515438 5.2879286 39 12 1.681198e+09
-39.234879 20.299219 8.5720224 30 13 1.681198e+09
-26.370211 20.445282 2.9162312 24 10 1.681198e+09
-38.642803 20.069939 5.334549 1 11 1.681198e+09
-18.276484 14.174523 0.40310693 1 8 1.681198e+09
-19.289804 10.042512 1.1379145 50 9 1.681198e+09
-6.2467699 4.8468142 -0.41391203 45 6 1.681198e+09
-6.6967402 3.4942222 -0.1312421 7 7 1.681198e+09
-6.7218761 5.2212439 -1.0392847 7 4 1.681198e+09
-6.6863337 3.4873297 -0.65540838 6 5 1.681198e+09
-6.7572889 5.2563162 -1.6542 12 2 1.681198e+09
-4.34584 2.2665319 -0.77168024 8 3 1.681198e+09
-3.3944178 2.6431251 -1.1425884 4 0 1.681198e+09
-6.2434654 3.2443168 -1.6138295 10 1 1.681198e+09
-26.304546 20.526987 7.682816 20 14 1.681198e+09
-34.693741 18.011858 10.450421 29 15 1.681198e+09
-26.310673 20.531786 5.2684174 28 12 1.681198e+09
-38.907028 20.302107 8.5157843 32 13 1.681198e+09
-26.196259 20.449856 2.9044652 31 10 1.681198e+09
-38.631863 20.235785 5.3427634 1 11 1.681198e+09
nan nan nan 0 8 1.681198e+09
-19.250212 10.107464 1.1376528 67 9 1.681198e+09
-6.2534146 4.8870425 -0.41548735 43 6 1.681198e+09
-6.6961808 3.5222216 -0.13146025 14 7 1.681198e+09
-6.1838322 4.8378506 -0.95835686 36 4 1.681198e+09
-6.6939635 3.521071 -0.6573655 6 5 1.681198e+09
-6.7427626 5.2828994 -1.6551523 14 2 1.681198e+09
-4.348834 2.287425 -0.77363789 8 3 1.681198e+09
-3.3533361 2.6290238 -1.1315957 9 0 1.681198e+09
-6.2256279 3.2627025 -1.6121448 10 1 1.681198e+09
-26.113989 20.525339 7.6480017 34 14 1.681198e+09
-33.770523 17.682615 10.190647 14 15 1.681198e+09
-26.128187 20.536516 5.2461748 30 12 1.681198e+09
-38.57095 20.298388 8.4576397 32 13 1.681198e+09
-26.050325 20.482674 2.8961854 24 10 1.681198e+09
-38.150673 20.153811 5.2858701 1 11 1.681198e+09
-17.18116 13.518057 0.38098601 45 8 1.681198e+09
-19.276598 10.207298 1.1413163 44 9 1.681198e+09
-6.2539701 4.9227428 -0.41666883 51 6 1.681198e+09
-6.7015157 3.5549347 -0.13180929 7 7 1.681198e+09
-6.1591125 4.853261 -0.95713985 40 4 1.681198e+09
-6.6860332 3.5467474 -0.65780038 7 5 1.681198e+09
-6.7262077 5.3079247 -1.6556286 10 2 1.681198e+09
-4.3408232 2.3025911 -0.77363789 8 3 1.681198e+09
-3.3498225 2.6452048 -1.1335355 10 0 1.681198e+09
-6.2034278 3.2787297 -1.6093372 9 1 1.681198e+09
-25.971518 20.560421 7.6272254 29 14 1.681198e+09
-33.54414 17.713573 10.140889 14 15 1.681198e+09
-25.942116 20.537159 5.2231512 35 12 1.681198e+09
-38.257057 20.304071 8.4042616 31 13 1.681198e+09
-25.855669 20.476065 2.8824582 29 10 1.681198e+09
-37.674915 20.071058 5.2295861 2 11 1.681198e+09
-17.086855 13.540686 0.37993887 90 8 1.681198e+09
-25.438684 13.58247 1.5094997 4 9 1.681198e+09
-6.2582641 4.9616079 -0.41811284 42 6 1.681198e+09
-6.695056 3.5830076 -0.13194019 3 7 1.681198e+09
-6.1460204 4.8778172 -0.95774835 43 4 1.681198e+09
-6.6861687 3.5782719 -0.65910512 10 5 1.681198e+09
-6.7114806 5.3344264 -1.6565809 10 2 1.681198e+09
-4.3327589 2.3177297 -0.77363789 8 3 1.681198e+09
-3.375999 2.6860471 -1.1458215 4 0 1.681198e+09
-6.1806173 3.2957201 -1.6065296 7 1 1.681198e+09
-25.789118 20.562859 7.5946569 34 14 1.681198e+09
-31.036976 16.528814 9.3996925 20 15 1.681198e+09
-25.767946 20.54599 5.2024693 29 12 1.681198e+09
-37.941433 20.306654 8.3504057 38 13 1.681198e+09
-25.646128 20.463507 2.8674238 27 10 1.681198e+09
-37.657085 20.230625 5.2368875 37 11 1.681198e+09
-17.060549 13.621938 0.38046244 52 8 1.681198e+09
-25.540407 13.757284 1.5185277 32 9 1.681198e+09
-6.2634401 5.0032158 -0.41968817 40 6 1.681198e+09
-6.702311 3.617028 -0.13233286 6 7 1.681198e+09
-6.1532907 4.9204626 -0.96170342 43 4 1.681198e+09
-6.6933689 3.6122227 -0.66106218 8 5 1.681198e+09
-6.69665 5.360889 -1.6575332 10 2 1.681198e+09
-4.32899 2.3351798 -0.77442086 8 3 1.681198e+09
-3.4099319 2.7325656 -1.1606939 2 0 1.681198e+09
-6.1926851 3.3299499 -1.6127064 8 1 1.681198e+09
-25.47809 20.468042 7.5250273 7 14 1.681198e+09
-33.771832 18.143986 10.248805 14 15 1.681198e+09
-25.565418 20.538221 5.1767149 35 12 1.681198e+09
-37.637829 20.32201 8.2998867 35 13 1.681198e+09
-24.912596 20.020874 2.7931237 38 10 1.681198e+09
-37.307785 20.219561 5.1985531 1 11 1.681198e+09
-17.010946 13.67984 0.38041878 1 8 1.681198e+09
-24.594872 13.359128 1.4650142 15 9 1.681198e+09
-6.2653866 5.0407023 -0.42100093 42 6 1.681198e+09
-6.6940374 3.6427882 -0.13242012 9 7 1.681198e+09
-6.1515355 4.9543662 -0.96413738 42 4 1.681198e+09
-6.687284 3.6391325 -0.66171455 4 5 1.681198e+09
-6.6826863 5.3900213 -1.6589618 12 2 1.681198e+09
-4.3204021 2.3510306 -0.77442086 8 3 1.681198e+09
-3.4022515 2.7459698 -1.1613405 3 0 1.681198e+09
-6.1917353 3.3573451 -1.615514 10 1 1.681198e+09
-25.148937 20.348438 7.4486594 7 14 1.681198e+09
-31.017714 16.804541 9.4300642 4 15 1.681198e+09
-25.393751 20.54656 5.1564231 28 12 1.681198e+09
-37.316624 20.317169 8.2446022 22 13 1.681198e+09
-24.9858 20.223669 2.8092473 39 10 1.681198e+09
-37.093258 20.271143 5.1784735 35 11 1.681198e+09
nan nan nan 0 8 1.681198e+09
-26.352531 14.432802 1.5728263 20 9 1.681198e+09
-6.2632675 5.075119 -0.4220511 10 6 1.681198e+09
-6.7053938 3.6793451 -0.13290006 16 7 1.681198e+09
-6.1592522 4.9961362 -0.9680925 42 4 1.681198e+09
-6.6941977 3.673224 -0.66367161 8 5 1.681198e+09
-6.6657352 5.4148631 -1.6594378 15 2 1.681198e+09
-4.3143353 2.3672831 -0.77481234 8 3 1.681198e+09
-3.4076316 2.770021 -1.1665134 4 0 1.681198e+09
-6.271924 3.4291306 -1.6396596 1 1 1.681198e+09
-25.238079 20.559435 7.4952664 47 14 1.681198e+09
-30.896107 16.871435 9.4100323 7 15 1.681198e+09
-25.229755 20.552671 5.1369119 31 12 1.681198e+09
-36.909092 20.254299 8.169301 1 13 1.681198e+09
-25.103933 20.45746 2.8301649 30 10 1.681198e+09
-36.84977 20.297085 5.1538301 56 11 1.681198e+09
nan nan nan 0 8 1.681198e+09
-36.691792 20.251823 2.1945775 17 9 1.681198e+09
-6.2657452 5.1116471 -0.42336389 34 6 1.681198e+09
-6.6990738 3.7063556 -0.13303097 3 7 1.681198e+09
-6.1561022 5.027524 -0.97022218 42 4 1.681198e+09
-6.6987743 3.7062039 -0.66541129 9 5 1.681198e+09
-6.6477427 5.4369378 -1.6594378 12 2 1.681198e+09
-4.3172708 2.3875418 -0.77677 8 3 1.681198e+09
-3.4110179 2.792613 -1.1710398 4 0 1.681198e+09
-4.5952592 2.5347149 -1.2016684 3 1 1.681198e+09
-25.113428 20.604141 7.4795437 42 14 1.681198e+09
-30.724892 16.917459 9.375783 3 15 1.681198e+09
-25.028048 20.534098 5.1103764 30 12 1.681198e+09
-36.752262 20.335495 8.1502361 37 13 1.681198e+09
-24.755468 20.324909 2.7992246 29 10 1.681198e+09
-36.518364 20.281048 5.117321 47 11 1.681198e+09
-16.976843 13.94768 0.38290575 2 8 1.681198e+09
-36.388264 20.25868 2.1808391 22 9 1.681198e+09
-6.2604656 5.1456771 -0.42428282 27 6 1.681198e+09
-6.6991973 3.7370155 -0.13329275 4 7 1.681198e+09
-6.1548762 5.0642467 -0.97296035 42 4 1.681198e+09
-6.6923237 3.7332003 -0.66606367 12 5 1.681198e+09
-6.6306181 5.4616704 -1.6599141 12 2 1.681198e+09
-4.3024373 2.3989956 -0.77559543 8 3 1.681198e+09
-3.4086995 2.8106511 -1.1736264 34 0 1.681198e+09
-4.5736036 2.5436471 -1.1982993 6 1 1.681198e+09
-24.898796 20.581184 7.4379902 35 14 1.681198e+09
-33.59967 18.660639 10.274654 1 15 1.681198e+09
-24.667135 20.389688 5.0518427 56 12 1.681198e+09
-36.456741 20.346895 8.1011477 34 13 1.681198e+09
-24.657499 20.388977 2.7961743 28 10 1.681198e+09
-36.183182 20.260521 5.080204 38 11 1.681198e+09
-16.852951 13.944703 0.38120416 32 8 1.681198e+09
-36.01688 20.21697 2.1627834 1 9 1.681198e+09
-6.2732306 5.192976 -0.42638323 27 6 1.681198e+09
-6.6970091 3.7664971 -0.1335109 7 7 1.681198e+09
-6.1639056 5.107872 -0.9772197 42 4 1.681198e+09
-6.6944528 3.7650752 -0.66758585 4 5 1.681198e+09
-6.4981995 5.3907413 -1.6313441 36 2 1.681198e+09
-4.3026514 2.4188318 -0.77716154 9 3 1.681198e+09
-3.4007244 2.8240757 -1.174273 32 0 1.681198e+09
-4.5646968 2.5595963 -1.1982993 4 1 1.681198e+09
-24.721807 20.573252 7.4054217 30 14 1.681198e+09
-33.729393 18.879274 10.333459 10 15 1.681198e+09
-24.62406 20.491913 5.0569158 24 12 1.681198e+09
-36.160183 20.33897 8.0501518 28 13 1.681198e+09
-24.605314 20.490862 2.798353 4 10 1.681198e+09
-34.727039 19.604906 4.8851857 28 11 1.681198e+09
-16.775892 13.974913 0.38050607 46 8 1.681198e+09
-34.676189 19.61611 2.0861113 30 9 1.681198e+09
-6.2751503 5.2297373 -0.42769596 27 6 1.681198e+09
-6.6925216 3.7947779 -0.13368542 15 7 1.681198e+09
-6.171699 5.1489553 -0.98117489 42 4 1.681198e+09
-6.6862645 3.7897077 -0.66802073 6 5 1.681198e+09
-6.4623942 5.3992248 -1.6270585 34 2 1.681198e+09
-4.2941818 2.433836 -0.77716154 9 3 1.681198e+09
-3.4075129 2.8498797 -1.1800927 24 0 1.681198e+09
-4.5455737 2.5687358 -1.1954916 2 1 1.681198e+09
