# .PCD v0.7 - Point Cloud Data file format
VERSION 0.7
FIELDS x y z intensity ring timestamp
SIZE 4 4 4 4 2 8
TYPE F F F F U F
COUNT 1 1 1 1 1 1
WIDTH 975
HEIGHT 1
VIEWPOINT 0 0 0 1 0 0 0
POINTS 975
DATA ascii
-11.024685 4.5309978 -1.0376936 3 5 1.681198e+09
-4.413322 2.8301551 -1.0104239 2 2 1.681198e+09
-9.1803493 3.7682443 -1.5680261 7 3 1.681198e+09
-4.666225 2.9970403 -1.4756008 9 0 1.681198e+09
-6.4324193 2.6339819 -1.5941761 9 1 1.681198e+09
-31.779194 20.462526 8.7042341 1 14 1.681198e+09
-34.515472 14.118685 9.968998 4 15 1.681198e+09
-31.560436 20.321669 5.9263353 20 12 1.681198e+09
-48.836388 20.094034 10.24868 43 13 1.681198e+09
-31.610998 20.362043 3.286643 7 10 1.681198e+09
-22.827938 9.4326134 3.0241482 6 11 1.681198e+09
-31.473867 20.289259 0.65302539 1 8 1.681198e+09
-48.252979 19.991989 2.7354693 25 9 1.681198e+09
-6.7013197 4.3216324 -0.41745648 2 6 1.681198e+09
-13.556485 5.6257677 -0.25559047 7 7 1.681198e+09
-6.2834477 4.0566764 -0.9127208 2 4 1.681198e+09
-10.909874 4.5284367 -1.0283431 6 5 1.681198e+09
-6.38802 4.1289501 -1.4689715 1 2 1.681198e+09
-9.1739826 3.8030996 -1.5692006 7 3 1.681198e+09
nan nan nan 0 0 1.681198e+09
-6.4321933 2.6601374 -1.5964222 9 1 1.681198e+09
-31.52109 20.444504 8.6520128 35 14 1.681198e+09
-34.439445 14.221087 9.960598 20 15 1.681198e+09
nan nan nan 0 12 1.681198e+09
-41.668476 17.307274 8.7555113 22 13 1.681198e+09
nan nan nan 0 10 1.681198e+09
-22.845257 9.5332537 3.0308414 7 11 1.681198e+09
-31.398026 20.388071 0.65285081 1 8 1.681198e+09
-47.847828 20.010323 2.7162359 20 9 1.681198e+09
-6.7078848 4.3574362 -0.41876924 9 6 1.681198e+09
-13.557516 5.6817436 -0.25598314 7 7 1.681198e+09
-6.2886796 4.0896702 -0.91545898 2 4 1.681198e+09
-10.798306 4.5242066 -1.0192101 4 5 1.681198e+09
-6.2728157 4.085568 -1.4456394 3 2 1.681198e+09
-9.1606522 3.8350997 -1.5692006 7 3 1.681198e+09
-4.447 2.9001975 -1.4122314 2 0 1.681198e+09
-6.4210877 2.6805155 -1.5958606 10 1 1.681198e+09
-31.304752 20.459776 8.6121445 28 14 1.681198e+09
-34.460926 14.370951 9.9812765 17 15 1.681198e+09
-29.610706 19.352505 5.5844989 3 12 1.681198e+09
-41.582912 17.442181 8.750268 90 13 1.681198e+09
nan nan nan 0 10 1.681198e+09
-22.869011 9.6370192 3.0384474 8 11 1.681198e+09
-31.121691 20.363413 0.64857501 7 8 1.681198e+09
-47.462593 20.044184 2.6983109 44 9 1.681198e+09
-6.7009878 4.3862948 -0.41929433 7 6 1.681198e+09
-13.55602 5.7368212 -0.25633222 8 7 1.681198e+09
-6.2349372 4.0857463 -0.9096784 3 4 1.681198e+09
-10.761006 4.5550246 -1.0172529 8 5 1.681198e+09
-6.2215886 4.0831923 -1.4370683 3 2 1.681198e+09
-9.1563082 3.8708949 -1.5707667 7 3 1.681198e+09
-4.4247422 2.9077408 -1.4083517 3 0 1.681198e+09
-6.4179554 2.7068675 -1.5975451 10 1 1.681198e+09
-31.076488 20.465748 8.5689058 28 14 1.681198e+09
-34.492912 14.525826 10.005187 7 15 1.681198e+09
-29.433674 19.38376 5.563817 7 12 1.681198e+09
-41.472061 17.566174 8.7397833 7 13 1.681198e+09
-30.622499 20.182089 3.2055881 20 10 1.681198e+09
-23.049881 9.8080788 3.0670462 9 11 1.681198e+09
-30.717169 20.25988 0.64168131 14 8 1.681198e+09
-47.023682 20.062269 2.6775074 14 9 1.681198e+09
-6.7015352 4.4218297 -0.42034456 7 6 1.681198e+09
-13.540509 5.7860684 -0.25641948 17 7 1.681198e+09
-6.1785173 4.0812087 -0.90359354 4 4 1.681198e+09
-10.758783 4.5984278 -1.0185577 10 5 1.681198e+09
-6.1909242 4.0940514 -1.433259 4 2 1.681198e+09
-9.1404696 3.9018645 -1.5703752 8 3 1.681198e+09
-4.4065132 2.9178331 -1.4057652 4 0 1.681198e+09
-6.4107094 2.730207 -1.5981066 12 1 1.681198e+09
-30.863258 20.487885 8.5307226 31 14 1.681198e+09
-34.477215 14.668219 10.016172 10 15 1.681198e+09
-29.216366 19.394537 5.5361109 22 12 1.681198e+09
-47.118275 20.161026 9.946044 45 13 1.681198e+09
-30.659744 20.360504 3.2169185 87 10 1.681198e+09
-22.920303 9.852335 3.0545723 8 11 1.681198e+09
-30.481806 20.257673 0.6382345 1 8 1.681198e+09
-30.753534 13.249543 1.7531235 79 9 1.681198e+09
-6.7110028 4.4617872 -0.42191985 24 6 1.681198e+09
-13.55466 5.8481407 -0.25707394 7 7 1.681198e+09
nan nan nan 0 4 1.681198e+09
-10.749528 4.6389122 -1.0192101 10 5 1.681198e+09
-6.1820025 4.1208 -1.4346876 6 2 1.681198e+09
-9.1351776 3.9392464 -1.5719413 7 3 1.681198e+09
-4.4244189 2.9519701 -1.4148179 12 0 1.681198e+09
-6.3989015 2.7516069 -1.5975451 10 1 1.681198e+09
-30.611345 20.474945 8.4807472 39 14 1.681198e+09
-34.483501 14.813253 10.032973 17 15 1.681198e+09
-29.047915 19.429127 5.5169897 34 12 1.681198e+09
-46.644325 20.151194 9.860733 24 13 1.681198e+09
-30.54916 20.441088 3.2127786 72 10 1.681198e+09
-22.84024 9.9125319 3.0484874 6 11 1.681198e+09
-18.229876 12.206383 0.38233855 8 8 1.681198e+09
-45.723984 19.886339 2.6113026 34 9 1.681198e+09
-6.6891661 4.4810157 -0.42152604 37 6 1.681198e+09
-13.527289 5.8924274 -0.25694305 3 7 1.681198e+09
-6.4074464 4.2970624 -0.94162357 1 4 1.681198e+09
-10.737838 4.6783948 -1.019645 3 5 1.681198e+09
-6.1940618 4.1601486 -1.4408778 6 2 1.681198e+09
-4.7375684 2.0649784 -0.81396407 8 3 1.681198e+09
-4.4080768 2.9633524 -1.4128782 29 0 1.681198e+09
-6.3937287 2.7758639 -1.5986682 10 1 1.681198e+09
-30.388178 20.479557 8.438632 25 14 1.681198e+09
-34.482544 14.955628 10.047835 17 15 1.681198e+09
-28.88163 19.464159 5.4982591 67 12 1.681198e+09
-46.20927 20.154974 9.7835245 34 13 1.681198e+09
-30.33514 20.45153 3.1977441 58 10 1.681198e+09
-22.869144 10.020069 3.0570061 4 11 1.681198e+09
-18.205807 12.282527 0.38273126 7 8 1.681198e+09
-45.64286 20.040806 2.6106482 28 9 1.681198e+09
-6.6796904 4.5085297 -0.42191985 6 6 1.681198e+09
-6.6687284 2.9351308 -0.12657358 1 7 1.681198e+09
-4.4374037 2.9977548 -0.65229112 10 4 1.681198e+09
-6.635447 2.9205208 -0.6299662 1 5 1.681198e+09
-6.1855989 4.1858726 -1.4423063 6 2 1.681198e+09
-4.7099833 2.0725708 -0.81044042 25 3 1.681198e+09
-4.4017034 2.981431 -1.4141712 23 0 1.681198e+09
-6.3817677 2.7971888 -1.5981066 12 1 1.681198e+09
-30.098845 20.437698 8.3779869 3 14 1.681198e+09
-34.487656 15.101083 10.064637 20 15 1.681198e+09
-28.678684 19.473295 5.4725041 38 12 1.681198e+09
-45.853374 20.190577 9.7229967 28 13 1.681198e+09
-30.082275 20.434137 3.1785698 75 10 1.681198e+09
-22.829491 10.097832 3.0563977 4 11 1.681198e+09
-6.6385074 4.5111451 0.13948835 9 8 1.681198e+09
-53.504322 23.714853 3.0653169 1 9 1.681198e+09
-6.6721692 4.537436 -0.42244497 1 6 1.681198e+09
-6.6287374 2.9452157 -0.12600636 4 7 1.681198e+09
-4.4330649 3.0174167 -0.65320385 14 4 1.681198e+09
-6.6365948 2.948714 -0.63105345 2 5 1.681198e+09
-6.2013621 4.2281842 -1.4494487 4 2 1.681198e+09
-4.6553135 2.0679915 -0.80221862 22 3 1.681198e+09
-4.3912692 2.996778 -1.4141712 21 0 1.681198e+09
-6.3786507 2.822401 -1.5997913 10 1 1.681198e+09
-29.932379 20.470009 8.3504725 20 14 1.681198e+09
-34.488197 15.237805 10.0795 17 15 1.681198e+09
-28.593569 19.55435 5.4686022 37 12 1.681198e+09
-45.366756 20.156225 9.6338739 17 13 1.681198e+09
-29.827307 20.405809 3.1587422 39 10 1.681198e+09
-22.816275 10.182577 3.0591357 4 11 1.681198e+09
-6.6585736 4.5571423 0.14023007 2 8 1.681198e+09
-44.716808 19.998438 2.5653775 37 9 1.681198e+09
-6.6879773 4.5807047 -0.42441407 1 6 1.681198e+09
-6.6777325 2.9948945 -0.12714078 7 7 1.681198e+09
-4.4066644 3.0208712 -0.65076989 10 4 1.681198e+09
-6.6899076 3.0003593 -0.63714218 12 5 1.681198e+09
-6.1893291 4.2501149 -1.4499248 4 2 1.681198e+09
-4.6191268 2.0703156 -0.79712886 22 3 1.681198e+09
-4.4225616 3.0408344 -1.4277505 14 0 1.681198e+09
-6.3732095 2.8466337 -1.6009144 10 1 1.681198e+09
-29.74239 20.492811 8.3173418 47 14 1.681198e+09
-34.500969 15.387603 10.098886 20 15 1.681198e+09
-28.472269 19.617611 5.458456 28 12 1.681198e+09
-45.002769 20.182932 9.5714407 1 13 1.681198e+09
-29.629301 20.430164 3.1456685 31 10 1.681198e+09
-22.78964 10.266234 3.0603528 6 11 1.681198e+09
-17.810801 12.289351 0.37710285 1 8 1.681198e+09
-44.577225 20.132406 2.5615833 89 9 1.681198e+09
-6.6916857 4.6193738 -0.42572686 7 6 1.681198e+09
-6.6626821 3.0161271 -0.12705351 37 7 1.681198e+09
-4.3873992 3.0313575 -0.649553 4 4 1.681198e+09
-6.6453514 3.0083079 -0.63388038 22 5 1.681198e+09
-6.1905999 4.2828684 -1.4537342 4 2 1.681198e+09
-4.5848656 2.0742388 -0.79243064 20 3 1.681198e+09
-4.465507 3.0934005 -1.4452094 14 0 1.681198e+09
-6.3654556 2.8698626 -1.6014758 12 1 1.681198e+09
-29.541023 20.514137 8.2819662 31 14 1.681198e+09
-34.497192 15.537748 10.114394 17 15 1.681198e+09
nan nan nan 0 12 1.681198e+09
-44.619968 20.208046 9.5056705 17 13 1.681198e+09
-29.408499 20.429731 3.1297629 34 10 1.681198e+09
-22.789812 10.362149 3.0652206 4 11 1.681198e+09
-18.196724 12.649674 0.38622174 12 8 1.681198e+09
-44.111385 20.10774 2.5388172 17 9 1.681198e+09
-6.7042108 4.6626668 -0.42756471 22 6 1.681198e+09
-6.6657581 3.0455897 -0.1273153 9 7 1.681198e+09
-6.3742347 4.4380178 -0.94801265 1 4 1.681198e+09
-6.6869254 3.0552588 -0.6388818 7 5 1.681198e+09
-6.1937294 4.3170857 -1.4580197 4 2 1.681198e+09
-4.5438924 2.074877 -0.78655791 23 3 1.681198e+09
-4.3556876 3.0398326 -1.4128782 6 0 1.681198e+09
-6.3553987 2.8920646 -1.6014758 12 1 1.681198e+09
-29.3291 20.511459 8.2415361 28 14 1.681198e+09
-34.500443 15.67703 10.130549 25 15 1.681198e+09
-27.691139 19.365837 5.3343654 37 12 1.681198e+09
-44.155365 20.174398 9.4208364 17 13 1.681198e+09
-29.051357 20.332323 3.0992579 39 10 1.681198e+09
-22.7738 10.450948 3.0679588 6 11 1.681198e+09
-18.171059 12.721417 0.38657078 1 8 1.681198e+09
-43.683796 20.088099 2.5180137 35 9 1.681198e+09
-6.7071128 4.6977668 -0.42874619 8 6 1.681198e+09
-6.6777925 3.0792923 -0.1277516 6 7 1.681198e+09
-6.2782264 4.4021292 -0.93584305 1 4 1.681198e+09
-6.6609201 3.0701289 -0.63735962 8 5 1.681198e+09
-6.2248101 4.3711286 -1.4689715 4 2 1.681198e+09
-4.5052133 2.0762861 -0.78107661 16 3 1.681198e+09
-3.790062 2.6645319 -1.2311761 3 0 1.681198e+09
-6.350203 2.9151537 -1.6025989 12 1 1.681198e+09
-29.103987 20.505663 8.1982985 42 14 1.681198e+09
-34.509174 15.826552 10.14929 20 15 1.681198e+09
-29.006094 20.436701 5.6016688 1 12 1.681198e+09
-43.78825 20.191753 9.3574495 20 13 1.681198e+09
-28.936953 20.395546 3.0942466 22 10 1.681198e+09
-22.777716 10.549144 3.0734351 6 11 1.681198e+09
-19.196836 13.53978 0.40943342 10 8 1.681198e+09
-43.382408 20.133282 2.504668 1 9 1.681198e+09
-6.7192278 4.7413077 -0.43058404 3 6 1.681198e+09
-6.6760707 3.1067963 -0.12792613 4 7 1.681198e+09
-6.3377995 4.4770069 -0.94709992 3 4 1.681198e+09
-6.6631746 3.1008182 -0.63866436 16 5 1.681198e+09
-6.2135205 4.3956666 -1.4699239 3 2 1.681198e+09
-4.4643412 2.076411 -0.77520388 15 3 1.681198e+09
-3.7433052 2.651212 -1.2188903 8 0 1.681198e+09
-6.3505311 2.9435241 -1.6054066 10 1 1.681198e+09
-28.857418 20.483036 8.1488838 36 14 1.681198e+09
-34.501942 15.969226 10.163507 20 15 1.681198e+09
-28.751343 20.407751 5.5661583 1 12 1.681198e+09
-43.350357 20.173668 9.2788115 14 13 1.681198e+09
-27.867151 19.794724 2.9874811 20 10 1.681198e+09
-22.765486 10.640141 3.0767817 8 11 1.681198e+09
-19.143007 13.607153 0.40934616 8 8 1.681198e+09
-41.637581 19.50952 2.4079771 32 9 1.681198e+09
-6.7079072 4.7702451 -0.43097785 9 6 1.681198e+09
-6.6878171 3.1406925 -0.12836245 7 7 1.681198e+09
-6.2384801 4.4411836 -0.9346261 2 4 1.681198e+09
-6.6748595 3.1346304 -0.64083892 9 5 1.681198e+09
-6.2341084 4.4429765 -1.4784949 4 2 1.681198e+09
-4.4347043 2.0815117 -0.77128869 12 3 1.681198e+09
-3.6573811 2.6095302 -1.1936718 10 0 1.681198e+09
-6.3380098 2.9646428 -1.604845 10 1 1.681198e+09
-27.696396 19.811914 7.8411674 28 14 1.681198e+09
-34.51976 16.131351 10.186123 17 15 1.681198e+09
-27.706324 19.819031 5.3776803 42 12 1.681198e+09
-41.62347 19.55615 8.9242258 27 13 1.681198e+09
-27.648016 19.784622 2.9713571 43 10 1.681198e+09
-22.786562 10.747054 3.084692 10 11 1.681198e+09
-19.392094 13.886386 0.41571629 7 8 1.681198e+09
-41.688854 19.711288 2.4149117 39 9 1.681198e+09
-6.7135363 4.8096285 -0.43242189 3 6 1.681198e+09
-6.6835923 3.1672254 -0.12849334 9 7 1.681198e+09
-6.2007623 4.4470205 -0.93127942 2 4 1.681198e+09
-6.6751337 3.1632369 -0.64192617 6 5 1.681198e+09
-6.262414 4.4962101 -1.4889705 6 2 1.681198e+09
-4.4140162 2.0906503 -0.76893961 10 3 1.681198e+09
-3.6227648 2.6039479 -1.1852657 9 0 1.681198e+09
-6.3342338 2.9898636 -1.6065296 10 1 1.681198e+09
-27.553459 19.848114 7.8192677 45 14 1.681198e+09
-34.505405 16.264265 10.197756 17 15 1.681198e+09
-27.568321 19.858835 5.3636322 39 12 1.681198e+09
-41.585007 19.706676 8.929944 89 13 1.681198e+09
-27.641411 19.926159 2.9781117 39 10 1.681198e+09
-41.638931 19.812336 5.6494374 20 11 1.681198e+09
-19.437168 14.016413 0.41767967 4 8 1.681198e+09
-41.704388 19.888102 2.4196219 42 9 1.681198e+09
-6.7177935 4.8464766 -0.43373469 21 6 1.681198e+09
-6.6905413 3.199151 -0.12884238 10 7 1.681198e+09
-6.1980495 4.4762783 -0.93310493 2 4 1.681198e+09
-6.6803417 3.1928632 -0.64344841 7 5 1.681198e+09
-6.4156852 4.6403365 -1.5294446 6 2 1.681198e+09
-4.4022346 2.10392 -0.76815659 9 3 1.681198e+09
-3.6214752 2.6222463 -1.1878521 9 0 1.681198e+09
-6.3286848 3.0129437 -1.6076527 10 1 1.681198e+09
-27.572727 20.008562 7.8445363 59 14 1.681198e+09
-34.526936 16.421944 10.221019 20 15 1.681198e+09
-27.568781 20.005713 5.3772902 35 12 1.681198e+09
-41.591244 19.887705 8.9461489 89 13 1.681198e+09
-27.655798 20.076242 2.9868274 38 10 1.681198e+09
-41.623211 19.983332 5.6567392 20 11 1.681198e+09
nan nan nan 0 8 1.681198e+09
-41.882187 20.152607 2.4340143 43 9 1.681198e+09
-6.7210279 4.8845773 -0.43504742 4 6 1.681198e+09
-6.6838374 3.2246556 -0.12892964 11 7 1.681198e+09
-6.2184982 4.5241709 -0.93858117 2 4 1.681198e+09
-6.6843009 3.2248921 -0.64497054 7 5 1.681198e+09
-6.5184436 4.7494431 -1.5580144 7 2 1.681198e+09
-4.3993139 2.1214147 -0.76893961 8 3 1.681198e+09
-3.657161 2.6676211 -1.2027246 11 0 1.681198e+09
-6.3219924 3.0382268 -1.6087757 11 1 1.681198e+09
-27.561718 20.14782 7.8613825 59 14 1.681198e+09
-34.471581 16.543409 10.221664 20 15 1.681198e+09
-27.432997 20.053732 5.3644128 34 12 1.681198e+09
-41.574619 20.058352 8.9575872 52 13 1.681198e+09
-27.626249 20.209824 2.991621 36 10 1.681198e+09
-22.764336 11.029423 3.0971658 4 11 1.681198e+09
nan nan nan 0 8 1.681198e+09
-41.48016 20.146765 2.4149117 4 9 1.681198e+09
-6.7131486 4.9165559 -0.43570378 14 6 1.681198e+09
-6.6905255 3.2567077 -0.12927869 4 7 1.681198e+09
-6.2098784 4.5528035 -0.93979818 3 4 1.681198e+09
-6.6842027 3.253648 -0.64605784 9 5 1.681198e+09
-6.6462336 4.8782082 -1.5927747 8 2 1.681198e+09
-4.4029884 2.142149 -0.77089721 7 3 1.681198e+09
-3.638099 2.6732168 -1.1994914 15 0 1.681198e+09
-6.3091555 3.0592148 -1.6082141 10 1 1.681198e+09
-27.501417 20.258816 7.8653126 43 14 1.681198e+09
-34.478092 16.702274 10.241697 17 15 1.681198e+09
-27.176409 20.019392 5.3285122 35 12 1.681198e+09
-41.555988 20.237453 8.9695015 1 13 1.681198e+09
-27.551527 20.303177 2.9911852 28 10 1.681198e+09
-22.795097 11.147656 3.1069014 3 11 1.681198e+09
nan nan nan 0 8 1.681198e+09
-41.178654 20.178307 2.4014351 3 9 1.681198e+09
-6.7220588 4.9592328 -0.43741038 6 6 1.681198e+09
-6.6880946 3.2844441 -0.12945323 6 7 1.681198e+09
-6.2059226 4.5833006 -0.94162357 3 4 1.681198e+09
-6.6862211 3.2835393 -0.64736253 16 5 1.681198e+09
-6.7368155 4.9828253 -1.6189638 9 2 1.681198e+09
-4.3951073 2.1582723 -0.77089721 7 3 1.681198e+09
-3.6171031 2.6772757 -1.1956117 13 0 1.681198e+09
-6.2984385 3.0812192 -1.6082141 10 1 1.681198e+09
-27.514652 20.41712 7.8894587 34 14 1.681198e+09
-34.493359 16.858572 10.263669 20 15 1.681198e+09
-27.114294 20.12002 5.3300729 35 12 1.681198e+09
-40.888145 20.08917 8.8403444 3 13 1.681198e+09
-27.384501 20.327967 2.9807265 25 10 1.681198e+09
-40.969677 20.209126 5.5968037 10 11 1.681198e+09
-18.2519 13.557863 0.39625686 1 8 1.681198e+09
-40.785671 20.162634 2.3825943 14 9 1.681198e+09
-6.7147241 4.9901147 -0.43806675 9 6 1.681198e+09
-6.6877913 3.3133113 -0.12967137 6 7 1.681198e+09
-6.2137733 4.6227136 -0.94527453 3 4 1.681198e+09
-6.6858811 3.3123803 -0.64844984 7 5 1.681198e+09
-6.3750262 4.7496367 -1.5356348 4 2 1.681198e+09
-4.3986149 2.1790712 -0.7728548 8 3 1.681198e+09
-3.5845098 2.6725543 -1.1878521 3 0 1.681198e+09
-6.2876449 3.1031861 -1.6082141 10 1 1.681198e+09
-27.447117 20.515957 7.8905821 25 14 1.681198e+09
-34.520947 17.021582 10.289516 28 15 1.681198e+09
-27.332657 20.430407 5.3870459 31 12 1.681198e+09
-40.87714 20.261194 8.8532124 36 13 1.681198e+09
-27.183737 20.326483 2.9665635 29 10 1.681198e+09
-40.654499 20.230436 5.5633373 22 11 1.681198e+09
-18.236483 13.645455 0.39695495 1 8 1.681198e+09
-19.543106 9.7489424 1.1427555 12 9 1.681198e+09
-6.7172465 5.0284877 -0.43937948 4 6 1.681198e+09
-6.6828952 3.3399842 -0.12980227 9 7 1.681198e+09
-6.2114968 4.6547952 -0.94740415 3 4 1.681198e+09
-6.6898775 3.3434823 -0.64997202 7 5 1.681198e+09
-6.215137 4.6642895 -1.5008746 22 2 1.681198e+09
-4.3843522 2.1911066 -0.77168024 7 3 1.681198e+09
-3.5307591 2.6516776 -1.1729797 3 0 1.681198e+09
-6.283319 3.1283684 -1.6098988 10 1 1.681198e+09
-27.276083 20.536903 7.8619437 22 14 1.681198e+09
-34.515381 17.168861 10.305672 25 15 1.681198e+09
-27.233557 20.504894 5.3815827 29 12 1.681198e+09
-40.558117 20.27976 8.7993574 37 13 1.681198e+09
-27.019121 20.350821 2.9563227 25 10 1.681198e+09
-40.324154 20.242002 5.5277414 20 11 1.681198e+09
-18.206703 13.722571 0.39734766 1 8 1.681198e+09
-19.475504 9.8002748 1.140793 31 9 1.681198e+09
-6.7056332 5.056416 -0.43977335 4 6 1.681198e+09
-6.6823587 3.3689113 -0.13002042 9 7 1.681198e+09
-6.2110519 4.6884127 -0.9498381 3 4 1.681198e+09
-6.6848388 3.3701735 -0.65062439 7 5 1.681198e+09
-6.3280101 4.7836637 -1.5323017 9 2 1.681198e+09
-4.3744712 2.2052879 -0.77128869 8 3 1.681198e+09
-3.5157058 2.6596131 -1.1710398 6 0 1.681198e+09
-6.2701826 3.1491899 -1.6093372 10 1 1.681198e+09
-27.045073 20.511271 7.8158989 17 14 1.681198e+09
-34.539433 17.33147 10.330873 22 15 1.681198e+09
-27.039835 20.507313 5.357388 35 12 1.681198e+09
-40.230694 20.291927 8.7435961 22 13 1.681198e+09
-26.886417 20.398342 2.9495683 22 10 1.681198e+09
-39.978725 20.243662 5.4900155 17 11 1.681198e+09
-18.204479 13.820808 0.39835113 1 8 1.681198e+09
-19.414455 9.8546429 1.1392229 38 9 1.681198e+09
-6.7137833 5.0994277 -0.44147995 7 6 1.681198e+09
-6.6883883 3.4012697 -0.13036947 8 7 1.681198e+09
-6.1966238 4.7115669 -0.95014232 6 4 1.681198e+09
-6.6885791 3.4013803 -0.65214658 7 5 1.681198e+09
-6.7173476 5.1150684 -1.6313441 9 2 1.681198e+09
-4.3777571 2.2261302 -0.77324635 8 3 1.681198e+09
-3.4871984 2.6572251 -1.1645737 4 0 1.681198e+09
-6.2569776 3.1699586 -1.6087757 10 1 1.681198e+09
-26.847485 20.509418 7.7793989 10 14 1.681198e+09
-34.528278 17.477007 10.345736 14 15 1.681198e+09
-26.864088 20.522118 5.3367062 29 12 1.681198e+09
-39.90588 20.303169 8.6883116 14 13 1.681198e+09
-26.729961 20.427042 2.9401991 28 10 1.681198e+09
-39.653671 20.253315 5.4550281 17 11 1.681198e+09
-18.289152 13.986013 0.40127444 1 8 1.681198e+09
-19.28215 9.8723097 1.1334659 45 9 1.681198e+09
-6.7336092 5.1516623 -0.44397417 2 6 1.681198e+09
-6.6831493 3.4280143 -0.13050036 3 7 1.681198e+09
-6.1919575 4.7422233 -0.95196778 3 4 1.681198e+09
-6.6855321 3.4292481 -0.65301639 9 5 1.681198e+09
-6.7286577 5.1608958 -1.6384866 9 2 1.681198e+09
-4.3655634 2.2391484 -0.77246326 7 3 1.681198e+09
-3.4606655 2.6561413 -1.158754 6 0 1.681198e+09
-6.2523847 3.1951015 -1.6104604 10 1 1.681198e+09
-26.671474 20.522779 7.7490768 10 14 1.681198e+09
-34.50148 17.614996 10.356075 17 15 1.681198e+09
-26.684656 20.532938 5.3152437 31 12 1.681198e+09
-39.360928 20.199245 8.5848904 3 13 1.681198e+09
-26.567717 20.450338 2.930176 20 10 1.681198e+09
-39.273003 20.223415 5.4118257 1 11 1.681198e+09
-18.200619 14.019258 0.4004018 1 8 1.681198e+09
-19.258665 9.9452829 1.1341201 44 9 1.681198e+09
-6.2647858 4.8275971 -0.41404331 39 6 1.681198e+09
-6.7044549 3.4685304 -0.13115482 4 7 1.681198e+09
-6.6998653 5.1686029 -1.0331999 10 4 1.681198e+09
-6.6867971 3.4594223 -0.65432113 16 5 1.681198e+09
-6.7678285 5.2266951 -1.6522955 10 2 1.681198e+09
-4.353725 2.2513483 -0.77168024 8 3 1.681198e+09
-3.4437325 2.6622934 -1.1561675 3 0 1.681198e+09
-6.2476916 3.2202506 -1.6121448 10 1 1.681198e+09
-26.431887 20.478312 7.699101 17 14 1.681198e+09
-34.333363 17.672955 10.323119 14 15 1.681198e+09
-26.470024 20.507877 5.2859774 40 12 1.681198e+09
-39.221802 20.292454 8.5691633 29 13 1.681198e+09
-26.366274 20.44223 2.9157953 20 10 1.681198e+09
-38.633995 20.065363 5.3333321 1 11 1.681198e+09
-18.325861 14.212824 0.40419772 1 8 1.681198e+09
-19.292021 10.043665 1.1380453 50 9 1.681198e+09
-6.2428255 4.8437524 -0.4136495 54 6 1.681198e+09
-6.6967402 3.4942222 -0.1312421 7 7 1.681198e+09
-6.7199168 5.2197213 -1.0389805 7 4 1.681198e+09
-6.6973782 3.4930816 -0.65649563 6 5 1.681198e+09
-6.7592263 5.2578235 -1.6546762 10 2 1.681198e+09
-4.3546023 2.2710912 -0.77324635 8 3 1.681198e+09
-3.3906078 2.640156 -1.1412951 4 0 1.681198e+09
-6.2348156 3.2398293 -1.6115834 12 1 1.681198e+09
-26.300709 20.523993 7.681694 20 14 1.681198e+09
-34.687309 18.00852 10.448483 29 15 1.681198e+09
-26.316513 20.536343 5.269588 28 12 1.681198e+09
-38.902676 20.299837 8.5148306 31 13 1.681198e+09
-26.208036 20.459051 2.9057724 31 10 1.681198e+09
-38.625271 20.232332 5.3418508 1 11 1.681198e+09
nan nan nan 0 8 1.681198e+09
-19.250212 10.107464 1.1376528 69 9 1.681198e+09
-6.2475142 4.8824296 -0.41509351 53 6 1.681198e+09
-6.7044172 3.5280411 -0.13163477 10 7 1.681198e+09
-6.179924 4.8347917 -0.95774835 34 4 1.681198e+09
-6.6911445 3.5210807 -0.657148 6 5 1.681198e+09
-6.7388992 5.279871 -1.6542 14 2 1.681198e+09
-4.3379016 2.2816877 -0.77168024 8 3 1.681198e+09
-3.3509779 2.628118 -1.1309491 9 0 1.681198e+09
-6.2293744 3.2660487 -1.6132679 10 1 1.681198e+09
-26.110159 20.522329 7.6468787 34 14 1.681198e+09
-33.781219 17.688213 10.193878 14 15 1.681198e+09
-26.114595 20.525831 5.243443 32 12 1.681198e+09
-38.588326 20.307529 8.4614525 32 13 1.681198e+09
-26.046749 20.487221 2.8961854 25 10 1.681198e+09
-38.141895 20.149176 5.2846532 1 11 1.681198e+09
-17.174871 13.517962 0.38089874 45 8 1.681198e+09
-19.270401 10.208326 1.1410546 44 9 1.681198e+09
-6.2531114 4.9238338 -0.41666883 46 6 1.681198e+09
-6.7008958 3.5561039 -0.13180929 9 7 1.681198e+09
-6.1543684 4.851263 -0.95653135 40 4 1.681198e+09
-6.6876159 3.5490806 -0.65801787 7 5 1.681198e+09
-6.7165756 5.3003206 -1.6532476 12 2 1.681198e+09
-4.3386407 2.3014362 -0.77324635 8 3 1.681198e+09
-3.3493607 2.6457896 -1.1335355 10 0 1.681198e+09
-6.2028556 3.2798123 -1.6093372 9 1 1.681198e+09
-25.969835 20.566463 7.6277866 28 14 1.681198e+09
-33.562408 17.730705 10.147351 10 15 1.681198e+09
-25.932724 20.537086 5.2219806 35 12 1.681198e+09
-38.257851 20.313049 8.4052143 30 13 1.681198e+09
-25.859907 20.486767 2.8833299 29 10 1.681198e+09
-37.659584 20.062893 5.2274561 2 11 1.681198e+09
-17.088408 13.546773 0.38002613 90 8 1.681198e+09
-19.298517 10.309631 1.1448491 4 9 1.681198e+09
-6.2593536 4.9642515 -0.41824412 42 6 1.681198e+09
-6.6972604 3.5841856 -0.13198382 3 7 1.681198e+09
-6.1451693 4.87889 -0.95774835 43 4 1.681198e+09
-6.6883655 3.5794456 -0.65932256 10 5 1.681198e+09
-6.7134013 5.3359537 -1.657057 10 2 1.681198e+09
-4.3371153 2.3200545 -0.77442086 8 3 1.681198e+09
-3.3646643 2.6770213 -1.1419418 4 0 1.681198e+09
-6.1849179 3.2980099 -1.6076527 7 1 1.681198e+09
-25.787212 20.561338 7.5940948 34 14 1.681198e+09
-31.083874 16.553782 9.413909 20 15 1.681198e+09
-25.766016 20.544453 5.2020793 29 12 1.681198e+09
-37.954414 20.313601 8.3532648 37 13 1.681198e+09
-25.638344 20.457294 2.8665524 25 10 1.681198e+09
-37.648346 20.225931 5.2356706 35 11 1.681198e+09
-17.060972 13.617402 0.38041878 57 8 1.681198e+09
-25.53841 13.75046 1.5182661 31 9 1.681198e+09
-6.2584615 4.9974475 -0.41929433 40 6 1.681198e+09
-6.7001109 3.6158421 -0.13228923 6 7 1.681198e+09
-6.1522117 4.9178391 -0.9613992 43 4 1.681198e+09
-6.6896143 3.6086922 -0.66062731 9 5 1.681198e+09
-6.7004809 5.3639574 -1.6584854 10 2 1.681198e+09
-4.3355131 2.3386905 -0.77559543 8 3 1.681198e+09
-3.4005125 2.7250113 -1.1574607 2 0 1.681198e+09
-6.1911197 3.3277168 -1.6121448 8 1 1.681198e+09
-25.51585 20.491053 7.5351353 7 14 1.681198e+09
-33.740959 18.119818 10.238466 10 15 1.681198e+09
-25.569004 20.533758 5.1767149 35 12 1.681198e+09
-37.641376 20.315443 8.2998867 37 13 1.681198e+09
-24.912205 20.013405 2.7926879 39 10 1.681198e+09
-37.31786 20.216595 5.1994658 1 11 1.681198e+09
-16.989958 13.658076 0.37989524 1 8 1.681198e+09
nan nan nan 0 9 1.681198e+09
-6.2623758 5.0364785 -0.42073837 42 6 1.681198e+09
-6.7056561 3.6475856 -0.13263828 8 7 1.681198e+09
-6.1543326 4.9548497 -0.9644416 42 4 1.681198e+09
-6.6988621 3.643909 -0.66280186 6 5 1.681198e+09
-6.6836276 5.388855 -1.6589618 12 2 1.681198e+09
-4.3294935 2.3549879 -0.77598697 8 3 1.681198e+09
-3.398973 2.7423415 -1.1600473 3 0 1.681198e+09
-6.1966062 3.3585832 -1.6166371 10 1 1.681198e+09
-25.209309 20.390015 7.4655056 7 14 1.681198e+09
-31.050381 16.815224 9.4391108 4 15 1.681198e+09
-25.403097 20.546787 5.1575937 29 12 1.681198e+09
-37.337414 20.320038 8.248415 20 13 1.681198e+09
-24.969971 20.203642 2.8070686 39 10 1.681198e+09
-37.101154 20.26705 5.1790819 31 11 1.681198e+09
nan nan nan 0 8 1.681198e+09
-24.526342 13.427429 1.463575 16 9 1.681198e+09
-6.2622132 5.0724535 -0.42191985 10 6 1.681198e+09
-6.7060361 3.6781747 -0.13290006 15 7 1.681198e+09
-6.1601243 4.9950614 -0.9680925 42 4 1.681198e+09
-6.6970234 3.6732521 -0.66388911 8 5 1.681198e+09
-6.6666803 5.4137001 -1.6594378 15 2 1.681198e+09
-4.3169146 2.3677156 -0.77520388 8 3 1.681198e+09
-3.4156098 2.7755213 -1.1691 3 0 1.681198e+09
-6.2661071 3.4245353 -1.6379752 1 1 1.681198e+09
-25.234491 20.563841 7.4952664 47 14 1.681198e+09
-30.903757 16.882616 9.4132633 7 15 1.681198e+09
-25.231911 20.561754 5.1380825 30 12 1.681198e+09
-36.957191 20.289078 8.1807384 1 13 1.681198e+09
-25.115805 20.474432 2.831908 31 10 1.681198e+09
-36.832378 20.28751 5.1513958 50 11 1.681198e+09
nan nan nan 0 8 1.681198e+09
-36.705742 20.267881 2.1956241 14 9 1.681198e+09
-6.2706547 5.1174765 -0.4237577 34 6 1.681198e+09
-6.7012615 3.7075644 -0.1330746 4 7 1.681198e+09
-6.1590672 5.0317388 -0.97083068 42 4 1.681198e+09
-6.6965947 3.7049997 -0.66519386 9 5 1.681198e+09
-6.6496425 5.4384923 -1.6599141 12 2 1.681198e+09
-4.3151088 2.386349 -0.77637845 9 3 1.681198e+09
-3.4072819 2.789552 -1.1697466 4 0 1.681198e+09
-4.6016622 2.538239 -1.203353 3 1 1.681198e+09
-25.109659 20.601048 7.4784203 42 14 1.681198e+09
-30.731237 16.920952 9.3777218 3 15 1.681198e+09
-25.02232 20.529398 5.1092057 31 12 1.681198e+09
-36.741524 20.329554 8.1478529 37 13 1.681198e+09
-24.776638 20.342293 2.8016214 29 10 1.681198e+09
-36.514019 20.278637 5.1167126 45 11 1.681198e+09
-16.99473 13.957411 0.38325483 2 8 1.681198e+09
-36.383076 20.247477 2.180316 20 9 1.681198e+09
-6.2729363 5.1540961 -0.42507049 29 6 1.681198e+09
-6.6991973 3.7370155 -0.13329275 4 7 1.681198e+09
-6.1672564 5.0726328 -0.97478586 42 4 1.681198e+09
-6.6973276 3.7344556 -0.6664986 17 5 1.681198e+09
-6.6268301 5.4585485 -1.6589618 12 2 1.681198e+09
-4.3089108 2.4025972 -0.77677 8 3 1.681198e+09
-3.4086995 2.8106511 -1.1736264 31 0 1.681198e+09
-4.5783076 2.545212 -1.1994222 6 1 1.681198e+09
-24.906147 20.579945 7.4391136 35 14 1.681198e+09
-33.59026 18.647743 10.270777 1 15 1.681198e+09
-24.663082 20.379093 5.050282 59 12 1.681198e+09
-36.460293 20.340532 8.1011477 34 13 1.681198e+09
-24.659138 20.383085 2.7959561 28 10 1.681198e+09
-36.187515 20.262945 5.0808125 39 11 1.681198e+09
-16.847683 13.93539 0.38102967 34 8 1.681198e+09
-36.063953 20.235113 2.1654 1 9 1.681198e+09
-6.2722135 5.1902895 -0.42625192 27 6 1.681198e+09
-6.7035475 3.7701693 -0.13364179 7 7 1.681198e+09
-6.1705279 5.1115465 -0.97813237 42 4 1.681198e+09
-6.6944528 3.7650752 -0.66758585 4 5 1.681198e+09
-6.5000882 5.3923092 -1.6318203 36 2 1.681198e+09
-4.3048043 2.4200394 -0.77755296 9 3 1.681198e+09
-3.4025819 2.8256195 -1.1749197 32 0 1.681198e+09
-4.5540671 2.5536482 -1.1954916 4 1 1.681198e+09
-24.714319 20.567019 7.4031758 31 14 1.681198e+09
-33.718853 18.873377 10.330228 10 15 1.681198e+09
-24.631651 20.498232 5.0584764 22 12 1.681198e+09
-36.164459 20.341375 8.0511045 29 13 1.681198e+09
-24.616796 20.500423 2.7996602 4 10 1.681198e+09
-34.70327 19.591492 4.8818393 27 11 1.681198e+09
-16.775372 13.979441 0.3805497 46 8 1.681198e+09
-34.687973 19.630764 2.0870271 31 9 1.681198e+09
-6.2780724 5.2340312 -0.42795852 27 6 1.681198e+09
-6.7033968 3.800936 -0.13390358 14 7 1.681198e+09
-6.1631808 5.143671 -0.97995788 40 4 1.681198e+09
-6.6877713 3.7921019 -0.66823822 6 5 1.681198e+09
-6.4623942 5.3992248 -1.6270585 34 2 1.681198e+09
-4.2920322 2.4326203 -0.77677 9 3 1.681198e+09
-3.4038093 2.8467796 -1.1787994 23 0 1.681198e+09
-4.5451255 2.5695293 -1.1954916 2 1 1.681198e+09
-24.556637 20.588591 7.3784685 34 14 1.681198e+09
-33.617905 18.979031 10.320534 31 15 1.681198e+09
nan nan nan 0 12 1.681198e+09
-34.650867 19.657764 7.7298808 22 13 1.681198e+09
-45.427364 38.102329 5.1842413 1 10 1.681198e+09
-34.589382 19.686739 4.8754501 31 11 1.681198e+09
-16.688181 14.005772 0.37967709 51 8 1.681198e+09
-34.695141 19.795023 2.0916064 39 9 1.681198e+09
-6.2769685 5.2703652 -0.42914 8 6 1.681198e+09
-6.7031136 3.8317475 -0.13416538 4 7 1.681198e+09
-6.1717772 5.1875105 -0.98421723 42 4 1.681198e+09
-6.6896334 3.8240664 -0.66976041 7 5 1.681198e+09
-6.4209771 5.4027843 -1.6213446 32 2 1.681198e+09
-4.2856603 2.4488106 -0.77716154 9 3 1.681198e+09
-3.3993905 2.8633132 -1.1807393 25 0 1.681198e+09
-6.1603003 3.5091627 -1.626183 14 1 1.681198e+09
-24.385841 20.583483 7.3475842 42 14 1.681198e+09
-33.64925 19.144138 10.349614 10 15 1.681198e+09
-45.183681 38.140377 9.3384562 1 12 1.681198e+09
-34.540737 19.746988 7.719872 37 13 1.681198e+09
-45.098133 38.095131 5.161799 1 10 1.681198e+09
-34.658207 19.886379 4.8949218 61 11 1.681198e+09
-16.674101 14.088462 0.38041878 29 8 1.681198e+09
-34.711555 19.957243 2.0965781 37 9 1.681198e+09
-6.2880511 5.3153329 -0.43110916 12 6 1.681198e+09
-6.6961961 3.8588624 -0.13429625 4 7 1.681198e+09
-6.158329 5.2111559 -0.98482573 8 4 1.681198e+09
-6.6833925 3.8499546 -0.67041278 9 5 1.681198e+09
-6.398335 5.4219904 -1.6203922 28 2 1.681198e+09
-4.2728043 2.4612944 -0.77637845 9 3 1.681198e+09
-3.4041028 2.8876653 -1.1859124 25 0 1.681198e+09
-6.1486297 3.5295715 -1.626183 17 1 1.681198e+09
-24.234035 20.600628 7.3234391 29 14 1.681198e+09
-33.655544 19.303524 10.372231 37 15 1.681198e+09
-44.837677 38.117123 9.2943602 3 12 1.681198e+09
-34.607693 19.945852 7.7503738 35 13 1.681198e+09
-23.552568 20.028376 2.701828 10 10 1.681198e+09
-34.633686 20.033323 4.9013104 44 11 1.681198e+09
-16.611496 14.13524 0.38011336 3 8 1.681198e+09
-34.676243 20.098314 2.0986717 34 9 1.681198e+09
-6.2922668 5.3566747 -0.43268445 37 6 1.681198e+09
-6.7021441 3.893502 -0.13468894 7 7 1.681198e+09
nan nan nan 0 4 1.681198e+09
-6.6907787 3.8869221 -0.67258728 6 5 1.681198e+09
-6.3644381 5.4315438 -1.616583 19 2 1.681198e+09
-4.2663231 2.4774323 -0.77677 10 3 1.681198e+09
-3.4086864 2.9120848 -1.1910853 25 0 1.681198e+09
-6.133543 3.5508642 -1.6256216 9 1 1.681198e+09
-24.050949 20.590031 7.2897472 37 14 1.681198e+09
-33.573322 19.412426 10.367707 58 15 1.681198e+09
-44.558044 38.148136 9.2639227 7 12 1.681198e+09
-34.590908 20.097351 7.762289 35 13 1.681198e+09
-23.443068 20.083776 2.6976881 22 10 1.681198e+09
-34.527107 20.132849 4.8961382 29 11 1.681198e+09
-18.259829 15.653837 0.41920677 29 8 1.681198e+09
-16.832153 9.8412113 1.0200278 9 9 1.681198e+09
-6.2972231 5.4008355 -0.43439105 39 6 1.681198e+09
-6.6949863 3.9206591 -0.13481984 15 7 1.681198e+09
nan nan nan 0 4 1.681198e+09
-6.6857696 3.9152832 -0.67345709 6 5 1.681198e+09
-6.3398566 5.448926 -1.6151544 7 2 1.681198e+09
-4.2640452 2.4960454 -0.77794451 10 3 1.681198e+09
-3.4094801 2.9334197 -1.194965 24 0 1.681198e+09
-4.4014592 2.5701861 -1.1668537 3 1 1.681198e+09
-23.903378 20.615988 7.2678475 28 14 1.681198e+09
-33.414318 19.484264 10.340566 61 15 1.681198e+09
-23.591488 20.346979 4.9176059 14 12 1.681198e+09
-34.677956 20.318266 7.7985096 22 13 1.681198e+09
-23.614174 20.373741 2.7255778 22 10 1.681198e+09
-34.376072 20.213989 4.8851857 14 11 1.681198e+09
-23.691628 20.455015 0.54573673 87 8 1.681198e+09
-16.737467 9.8644276 1.0163642 49 9 1.681198e+09
-6.2934437 5.4358416 -0.43544123 39 6 1.681198e+09
-6.7006392 3.9554296 -0.13521251 3 7 1.681198e+09
-5.4737988 4.7325926 -0.88290519 2 4 1.681198e+09
-6.6892257 3.9487152 -0.67519677 8 5 1.681198e+09
-5.4665241 4.7329583 -1.3961182 4 2 1.681198e+09
-4.2591233 2.5141637 -0.77872753 12 3 1.681198e+09
-3.4192898 2.9627066 -1.202078 22 0 1.681198e+09
nan nan nan 0 1 1.681198e+09
-23.720922 20.603447 7.2341566 31 14 1.681198e+09
-33.25032 19.5445 10.310842 62 15 1.681198e+09
-23.656406 20.547421 4.9460921 35 12 1.681198e+09
-34.484253 20.366821 7.7708678 20 13 1.681198e+09
-23.651945 20.550797 2.7382154 42 10 1.681198e+09
-34.164413 20.250376 4.8651061 14 11 1.681198e+09
-23.418259 20.362087 0.5410682 54 8 1.681198e+09
-16.67717 9.9074974 1.0147941 62 9 1.681198e+09
-6.300797 5.480721 -0.43727908 39 6 1.681198e+09
-6.6996846 3.9864566 -0.13547429 6 7 1.681198e+09
-5.4329214 4.7304826 -0.87895012 3 4 1.681198e+09
-6.6796832 3.9745853 -0.67563164 6 5 1.681198e+09
-5.4481201 4.7503982 -1.395642 8 2 1.681198e+09
-4.2524443 2.5302761 -0.77911907 12 3 1.681198e+09
-3.4143836 2.9793897 -1.2040178 23 0 1.681198e+09
-4.4232373 2.624434 -1.1775228 1 1 1.681198e+09
-23.531513 20.583466 7.1982188 28 14 1.681198e+09
-33.069691 19.593983 10.275946 45 15 1.681198e+09
-23.484179 20.542072 4.9250202 51 12 1.681198e+09
-34.233692 20.380383 7.7303572 20 13 1.681198e+09
-23.512596 20.574186 2.7303715 43 10 1.681198e+09
-33.769703 20.176092 4.8188615 7 11 1.681198e+09
-22.912653 20.063297 0.53098941 35 8 1.681198e+09
-16.66605 9.9797535 1.0162334 40 9 1.681198e+09
-6.2985258 5.5174899 -0.43846056 39 6 1.681198e+09
-6.7028837 4.0200934 -0.13582334 9 7 1.681198e+09
-5.4126453 4.7461452 -0.87834162 4 4 1.681198e+09
-6.6892715 4.0119543 -0.67802364 4 5 1.681198e+09
-5.4407239 4.7774858 -1.3980228 9 2 1.681198e+09
-4.2520609 2.5501764 -0.78068513 13 3 1.681198e+09
-3.442045 3.0247808 -1.217597 10 0 1.681198e+09
-4.4098659 2.6373608 -1.1763997 1 1 1.681198e+09
-23.329737 20.551142 7.15835 24 14 1.681198e+09
-32.938889 19.672157 10.25656 42 15 1.681198e+09
-23.388243 20.602701 4.9199467 43 12 1.681198e+09
-33.756172 20.25609 7.6383739 4 13 1.681198e+09
-23.339741 20.567215 2.7186055 37 10 1.681198e+09
-33.745842 20.322006 4.8255548 35 11 1.681198e+09
-23.129309 20.396118 0.53766495 39 8 1.681198e+09
-16.665318 10.0585 1.0183269 16 9 1.681198e+09
-6.3035617 5.5609188 -0.44016716 39 6 1.681198e+09
-6.7080688 4.0550938 -0.13621603 9 7 1.681198e+09
-5.4127817 4.7797961 -0.88107979 7 4 1.681198e+09
-6.6901512 4.0442905 -0.67954588 7 5 1.681198e+09
-5.4037948 4.7785602 -1.3927851 9 2 1.681198e+09
-4.2431331 2.5650032 -0.78068513 15 3 1.681198e+09
-3.4603906 3.0623951 -1.2279431 8 0 1.681198e+09
-4.4883075 2.7054813 -1.1999838 2 1 1.681198e+09
nan nan nan 0 14 1.681198e+09
-32.874153 19.789505 10.257852 36 15 1.681198e+09
-23.199814 20.580969 4.8953629 50 12 1.681198e+09
-33.725159 20.397923 7.6474295 28 13 1.681198e+09
-23.174669 20.565903 2.707711 40 10 1.681198e+09
-33.519142 20.337282 4.8027368 46 11 1.681198e+09
-23.119648 20.531507 0.53910482 30 8 1.681198e+09
-33.427071 20.329329 2.0485599 14 9 1.681198e+09
-6.3065042 5.6027899 -0.44174245 40 6 1.681198e+09
-6.7173624 4.0927777 -0.13669597 3 7 1.681198e+09
-5.3923564 4.795362 -0.88047129 9 4 1.681198e+09
-6.6930141 4.0779757 -0.6812855 11 5 1.681198e+09
-5.3750901 4.785027 -1.3894517 11 2 1.681198e+09
-4.2409339 2.582907 -0.7818597 16 3 1.681198e+09
-3.4659004 3.0889227 -1.2337626 8 0 1.681198e+09
-4.4538393 2.7059753 -1.1932455 2 1 1.681198e+09
-21.795732 19.464777 6.7276587 3 14 1.681198e+09
-32.791832 19.888397 10.252684 34 15 1.681198e+09
-23.0504 20.585415 4.8781929 42 12 1.681198e+09
-33.470802 20.396013 7.6050124 37 13 1.681198e+09
-22.980186 20.537134 2.6933303 36 10 1.681198e+09
-33.244705 20.329905 4.7735295 36 11 1.681198e+09
-22.960129 20.526423 0.53696692 40 8 1.681198e+09
-33.135941 20.303135 2.0348217 20 9 1.681198e+09
-6.3139386 5.6469784 -0.44358036 39 6 1.681198e+09
-6.7158198 4.1240411 -0.13695775 8 7 1.681198e+09
-5.3653345 4.8032842 -0.8786459 9 4 1.681198e+09
-6.6837006 4.1027517 -0.68172038 3 5 1.681198e+09
nan nan nan 0 2 1.681198e+09
-4.240315 2.6028543 -0.78342581 20 3 1.681198e+09
-3.4299433 3.0784097 -1.2247097 6 0 1.681198e+09
-4.4157367 2.7029498 -1.185384 2 1 1.681198e+09
-22.875982 20.573608 7.0836668 1 14 1.681198e+09
-32.664505 19.967476 10.234589 27 15 1.681198e+09
-22.879261 20.576574 4.857121 42 12 1.681198e+09
-33.215366 20.399723 7.5630727 38 13 1.681198e+09
-22.849009 20.556587 2.6859221 34 10 1.681198e+09
-33.010868 20.345596 4.750103 31 11 1.681198e+09
-22.819607 20.544559 0.53535253 29 8 1.681198e+09
-16.484383 10.182361 1.0136167 12 9 1.681198e+09
-6.3201547 5.69238 -0.44541821 39 6 1.681198e+09
-6.7141409 4.155344 -0.13721953 9 7 1.681198e+09
-5.3411651 4.8153353 -0.87742895 10 4 1.681198e+09
-6.6834483 4.1363873 -0.68324262 4 5 1.681198e+09
nan nan nan 0 2 1.681198e+09
-4.2480111 2.6280165 -0.78655791 22 3 1.681198e+09
-3.3672392 3.0433848 -1.2059577 7 0 1.681198e+09
-4.4452109 2.7433906 -1.1960531 2 1 1.681198e+09
-21.558203 19.524879 6.6962132 8 14 1.681198e+09
-32.574047 20.06871 10.228127 22 15 1.681198e+09
-22.712128 20.57011 4.8368292 37 12 1.681198e+09
-32.972828 20.409645 7.5239916 29 13 1.681198e+09
-22.666487 20.543184 2.6732845 34 10 1.681198e+09
-32.758358 20.348122 4.7239385 29 11 1.681198e+09
-22.658989 20.550808 0.53334552 30 8 1.681198e+09
-16.391844 10.208409 1.0102148 52 9 1.681198e+09
-6.3158846 5.7306075 -0.44659969 39 6 1.681198e+09
-6.7165685 4.1893287 -0.13756858 3 7 1.681198e+09
-5.3087878 4.8215294 -0.87499499 10 4 1.681198e+09
-6.6774244 4.164958 -0.68411237 8 5 1.681198e+09
-6.3958411 5.8153844 -1.6703897 22 2 1.681198e+09
-4.2409086 2.6441333 -0.78694946 24 3 1.681198e+09
-3.3565953 3.05512 -1.2059577 10 0 1.681198e+09
-6.1617947 3.8304236 -1.664367 1 1 1.681198e+09
-21.416313 19.539722 6.6743135 8 14 1.681198e+09
-32.465397 20.166306 10.217142 20 15 1.681198e+09
-22.545378 20.569992 4.817318 37 12 1.681198e+09
-32.597973 20.343296 7.4553618 14 13 1.681198e+09
-22.53026 20.563416 2.6656585 32 10 1.681198e+09
-32.527267 20.362297 4.7008162 30 11 1.681198e+09
-22.513292 20.562344 0.53160024 25 8 1.681198e+09
-16.33073 10.249645 1.0086447 54 9 1.681198e+09
-6.3216414 5.7762008 -0.44843754 39 6 1.681198e+09
-6.7061381 4.2154059 -0.13765585 7 7 1.681198e+09
-5.2772799 4.8266301 -0.8725611 10 4 1.681198e+09
-6.6670637 4.1908903 -0.68454731 4 5 1.681198e+09
-6.3972211 5.8575692 -1.6761037 21 2 1.681198e+09
-4.2400203 2.6641676 -0.78851551 27 3 1.681198e+09
-3.376164 3.0945694 -1.2169503 6 0 1.681198e+09
-5.8117476 3.6413081 -1.5728381 1 1 1.681198e+09
-21.302958 19.566137 6.659152 8 14 1.681198e+09
-32.212029 20.157295 10.158337 14 15 1.681198e+09
-22.373383 20.549427 4.7950754 30 12 1.681198e+09
-32.370338 20.350725 7.4186649 10 13 1.681198e+09
-22.361166 20.552608 2.6541102 37 10 1.681198e+09
-32.294384 20.373783 4.6773896 29 11 1.681198e+09
-22.349302 20.548906 0.52933145 29 8 1.681198e+09
-16.343082 10.333085 1.0115231 39 9 1.681198e+09
-6.3281713 5.8207994 -0.45027539 42 6 1.681198e+09
-6.7146187 4.2534895 -0.13813579 19 7 1.681198e+09
-5.241169 4.8256102 -0.86921442 13 4 1.681198e+09
-6.6678634 4.2222943 -0.68606949 3 5 1.681198e+09
-6.3262234 5.8332696 -1.662771 23 2 1.681198e+09
-4.2390442 2.6842284 -0.79008156 30 3 1.681198e+09
-3.4433932 3.1784358 -1.245402 7 0 1.681198e+09
-4.9237261 3.1085405 -1.3341889 10 1 1.681198e+09
-21.154055 19.565937 6.6338835 8 14 1.681198e+09
nan nan nan 0 15 1.681198e+09
-21.868275 20.226633 4.7018118 20 12 1.681198e+09
-32.245201 20.429453 7.4062729 31 13 1.681198e+09
-22.23805 20.575903 2.6475735 29 10 1.681198e+09
-31.963388 20.321339 4.6396642 31 11 1.681198e+09
-22.182066 20.538483 0.52706265 28 8 1.681198e+09
-31.7068 20.1971 1.9683553 39 9 1.681198e+09
-6.3261266 5.8598223 -0.45158812 22 6 1.681198e+09
-6.7123761 4.2849646 -0.13839757 4 7 1.681198e+09
-5.2006426 4.8219376 -0.86525929 17 4 1.681198e+09
-6.6649437 4.2547379 -0.68737417 7 5 1.681198e+09
-6.2770538 5.8285913 -1.6551523 27 2 1.681198e+09
-4.2379789 2.7043138 -0.79164761 30 3 1.681198e+09
-3.4340458 3.1920812 -1.2460486 7 0 1.681198e+09
-5.7738476 3.6739545 -1.5694687 1 1 1.681198e+09
-21.012543 19.571579 6.6108608 9 14 1.681198e+09
-31.505878 20.02294 9.9793377 1 15 1.681198e+09
-21.620464 20.137897 4.6635695 9 12 1.681198e+09
-32.016476 20.441532 7.3700519 29 13 1.681198e+09
-22.049541 20.551983 2.6340644 35 10 1.681198e+09
-31.641516 20.272184 4.6031551 7 11 1.681198e+09
-22.031702 20.549738 0.5252738 31 8 1.681198e+09
-31.699785 20.356335 1.972542 1 9 1.681198e+09
-6.3338051 5.9102268 -0.45368853 16 6 1.681198e+09
-6.7120986 4.3178272 -0.13870299 7 7 1.681198e+09
-5.1557393 4.8155532 -0.86069566 14 4 1.681198e+09
-6.6731 4.2927856 -0.68976623 3 5 1.681198e+09
-6.242332 5.8370543 -1.6513431 29 2 1.681198e+09
-4.238904 2.7257588 -0.79360527 34 3 1.681198e+09
-3.4264071 3.20735 -1.2473418 7 0 1.681198e+09
-5.8163819 3.7295532 -1.58463 1 1 1.681198e+09
-20.880272 19.591784 6.5917692 8 14 1.681198e+09
-27.470737 17.60087 8.7205315 30 15 1.681198e+09
-21.746386 20.404568 4.7068844 20 12 1.681198e+09
-31.763851 20.444534 7.3290648 1 13 1.681198e+09
-21.934088 20.587915 2.628835 30 10 1.681198e+09
-31.612253 20.40942 4.6092401 1 11 1.681198e+09
-21.89789 20.568329 0.5237903 30 8 1.681198e+09
nan nan nan 0 9 1.681198e+09
-6.3349657 5.9528203 -0.45526388 36 6 1.681198e+09
-6.7095757 4.3493819 -0.13896477 22 7 1.681198e+09
-5.1135993 4.8097134 -0.85643637 19 4 1.681198e+09
-6.6497121 4.3106389 -0.68889636 3 5 1.681198e+09
-6.2147732 5.852077 -1.6494384 31 2 1.681198e+09
-4.2376566 2.7459018 -0.79517126 35 3 1.681198e+09
-3.4151902 3.219291 -1.2473418 4 0 1.681198e+09
-5.6989293 3.6824756 -1.5559921 1 1 1.681198e+09
-20.684139 19.537121 6.5502157 8 14 1.681198e+09
-27.434542 17.70627 8.7276402 17 15 1.681198e+09
-21.701939 20.498613 4.7119575 20 12 1.681198e+09
-31.586731 20.479008 7.3038054 1 13 1.681198e+09
-21.74807 20.55657 2.615108 37 10 1.681198e+09
-31.168472 20.277468 4.554781 1 11 1.681198e+09
-21.751469 20.566982 0.52191418 25 8 1.681198e+09
nan nan nan 0 9 1.681198e+09
-6.3423905 5.9995341 -0.45723298 39 6 1.681198e+09
-6.7131939 4.3850675 -0.13935745 3 7 1.681198e+09
-5.086813 4.8164053 -0.85461092 17 4 1.681198e+09
-6.6771035 4.3598752 -0.69324547 7 5 1.681198e+09
-6.2067709 5.8855581 -1.6527715 34 2 1.681198e+09
-4.236321 2.7660694 -0.79673737 36 3 1.681198e+09
-3.3899252 3.2178869 -1.2421688 4 0 1.681198e+09
nan nan nan 0 1 1.681198e+09
-20.575222 19.570585 6.5373011 9 14 1.681198e+09
-31.420015 20.433382 10.019403 39 15 1.681198e+09
-21.546165 20.494251 4.6936169 20 12 1.681198e+09
-29.575399 19.322285 6.8539004 3 13 1.681198e+09
-21.634678 20.585655 2.6096609 22 10 1.681198e+09
-30.746758 20.156273 4.5033646 1 11 1.681198e+09
-21.491289 20.463509 0.51737654 22 8 1.681198e+09
-30.716343 20.174662 1.9241314 10 9 1.681198e+09
-6.3430972 6.0423045 -0.45880833 39 6 1.681198e+09
-6.7153282 4.4182878 -0.13970651 7 7 1.681198e+09
-5.0717649 4.8358445 -0.85491508 20 4 1.681198e+09
-6.6576815 4.3804207 -0.6928106 3 5 1.681198e+09
-6.1897383 5.9105787 -1.6537238 35 2 1.681198e+09
-4.2348952 2.7862611 -0.79830343 36 3 1.681198e+09
-3.4001796 3.2491391 -1.2499284 6 0 1.681198e+09
-5.9570122 3.9066963 -1.6340444 12 1 1.681198e+09
-20.461044 19.598473 6.5227013 8 14 1.681198e+09
-31.201023 20.446321 9.97223 36 15 1.681198e+09
-20.800453 19.92363 4.5461125 17 12 1.681198e+09
-29.405272 19.357946 6.830071 7 13 1.681198e+09
-20.766113 19.897694 2.5131359 24 10 1.681198e+09
-30.67621 20.263475 4.5033646 32 11 1.681198e+09
-20.732353 19.879238 0.50075316 28 8 1.681198e+09
-30.701948 20.318953 1.927664 90 9 1.681198e+09
-6.3489861 6.0903382 -0.46077743 39 6 1.681198e+09
-6.6977797 4.440321 -0.13966288 9 7 1.681198e+09
-5.0655909 4.863833 -0.85674059 20 4 1.681198e+09
-6.646503 4.4063835 -0.69324547 4 5 1.681198e+09
-6.1885242 5.9508653 -1.6589618 9 2 1.681198e+09
-4.2374992 2.8092015 -0.8006525 37 3 1.681198e+09
-3.3853385 3.2576377 -1.2486351 6 0 1.681198e+09
-5.9392729 3.9247835 -1.6329215 12 1 1.681198e+09
-20.315451 19.602283 6.4991169 7 14 1.681198e+09
-30.986822 20.468712 9.9276409 32 15 1.681198e+09
-20.65266 19.927713 4.5297227 30 12 1.681198e+09
-29.203238 19.378763 6.7995687 10 13 1.681198e+09
-20.635708 19.918322 2.5061634 27 10 1.681198e+09
-30.63685 20.399149 4.5085368 75 11 1.681198e+09
-20.587442 19.885624 0.49900788 28 8 1.681198e+09
-30.575346 20.396717 1.9243931 56 9 1.681198e+09
-6.3571358 6.1430655 -0.46300915 39 6 1.681198e+09
-6.7043304 4.4801035 -0.14014281 25 7 1.681198e+09
-5.0602121 4.8944464 -0.85887027 19 4 1.681198e+09
-6.6344519 4.4334798 -0.69368041 8 5 1.681198e+09
-4.9118071 4.7574587 -1.3199316 3 2 1.681198e+09
-4.2333369 2.828824 -0.80182707 37 3 1.681198e+09
-3.3803098 3.2767501 -1.2512215 8 0 1.681198e+09
-5.9309325 3.950573 -1.6346059 13 1 1.681198e+09
-20.185753 19.613655 6.4794636 7 14 1.681198e+09
-30.78047 20.487116 9.884346 34 15 1.681198e+09
-20.563492 19.980753 4.5254307 32 12 1.681198e+09
-28.961988 19.36466 6.759058 22 13 1.681198e+09
-20.628555 20.050989 2.5137894 28 10 1.681198e+09
-30.456238 20.432711 4.4924121 66 11 1.681198e+09
-20.661242 20.096804 0.50249839 31 8 1.681198e+09
-30.354761 20.403061 1.9149727 44 9 1.681198e+09
-6.3535423 6.1826329 -0.46432188 39 6 1.681198e+09
-6.6803532 4.4978986 -0.13996829 35 7 1.681198e+09
-5.0608678 4.9293981 -0.86191267 17 4 1.681198e+09
-6.6106687 4.4510517 -0.6928106 3 5 1.681198e+09
-4.8846321 4.7642908 -1.3170747 6 2 1.681198e+09
-4.237783 2.8532238 -0.80456769 38 3 1.681198e+09
-3.3653958 3.2851543 -1.2499284 9 0 1.681198e+09
-5.9150829 3.9698951 -1.6340444 12 1 1.681198e+09
-20.04752 19.615845 6.4570026 7 14 1.681198e+09
-30.532251 20.476088 9.8274803 42 15 1.681198e+09
-20.629519 20.185398 4.5554776 28 12 1.681198e+09
-28.820936 19.416285 6.7419004 14 13 1.681198e+09
-20.652763 20.215212 2.5253375 29 10 1.681198e+09
-30.240263 20.433584 4.4705067 46 11 1.681198e+09
-20.678457 20.254513 0.50463629 29 8 1.681198e+09
-19.917847 13.490918 1.2589414 34 9 1.681198e+09
-6.3622308 6.2344847 -0.4665536 39 6 1.681198e+09
-6.6749592 4.5282011 -0.14018646 3 7 1.681198e+09
-5.052485 4.9557238 -0.86343384 17 4 1.681198e+09
-6.6157093 4.4880705 -0.69498515 3 5 1.681198e+09
-4.8915663 4.8028212 -1.3232647 4 2 1.681198e+09
-4.2487464 2.8811007 -0.80848289 39 3 1.681198e+09
-3.3676805 3.31043 -1.2551013 8 0 1.681198e+09
-5.8931141 3.9850657 -1.6317984 10 1 1.681198e+09
-19.919884 19.62067 6.4367876 7 14 1.681198e+09
-30.328085 20.485319 9.7835379 29 15 1.681198e+09
-20.627558 20.317818 4.5699162 31 12 1.681198e+09
-28.632504 19.427713 6.7128282 14 13 1.681198e+09
-20.635281 20.339632 2.5318744 29 10 1.681198e+09
-30.008747 20.430115 4.4467759 73 11 1.681198e+09
-20.605839 20.317709 0.5045054 29 8 1.681198e+09
-19.681173 13.426086 1.2467734 39 9 1.681198e+09
-6.3628445 6.2765903 -0.46812889 39 6 1.681198e+09
-6.7086587 4.5852976 -0.14123359 3 7 1.681198e+09
-5.0466156 4.9829144 -0.86525929 16 4 1.681198e+09
-6.5925617 4.5043693 -0.69411534 6 5 1.681198e+09
-4.8887296 4.8336744 -1.3270741 4 2 1.681198e+09
-4.2447839 2.9000871 -0.80965745 39 3 1.681198e+09
-3.3612514 3.3272638 -1.2570411 7 0 1.681198e+09
-5.8879242 4.0100656 -1.6340444 13 1 1.681198e+09
-19.775175 19.614594 6.4120803 7 14 1.681198e+09
-30.094658 20.48102 9.7311954 28 15 1.681198e+09
-20.549498 20.38274 4.5683551 29 12 1.681198e+09
-28.412552 19.423685 6.6770835 17 13 1.681198e+09
-20.668484 20.507942 2.5442939 23 10 1.681198e+09
-29.779669 20.426682 4.4233494 43 11 1.681198e+09
-20.674911 20.528656 0.50795227 21 8 1.681198e+09
-19.650646 13.506012 1.2478199 50 9 1.681198e+09
-6.3727722 6.3304386 -0.47049186 39 6 1.681198e+09
-6.698791 4.6129365 -0.14136447 30 7 1.681198e+09
